-1.05478369305537,-1.42273757200977,-1.69329484177544,-1.79543131332715,-1.72176972985928,-1.45596201345663,-1.05483098820318,-0.569575589120339,-0.0792869280446131,0.339809850865245,0.617663759340265,0.719038188214653,0.63557316297624,0.386035190064182,0.0247628019561943,-0.383505970755513,-0.766243346632575,-1.0567244133592,-1.21237592755667,-1.21645901928551,-1.08240831623025,-0.838522934517852,-0.54869478681866,-0.259396847590565,-0.0100111802847763,0.161164947165244,0.236312030118077,0.204317773505263,0.0830853795657844,-0.123780934904977,-0.364055998197347,-0.611571940434252,-0.797032555191497,-0.913074220248454,-0.909043657900788,-0.818141571026851,-0.636796645447687,-0.414340797811855,-0.180151037560421,0.00513905577513812,0.137559937189197,0.183590301035723,0.146080723712766,0.0389661295064899,-0.113597720465479,-0.282709671891706,-0.438200738955121,-0.548021698838619,-0.584691215738204,-0.540452923683149,-0.415294378500268,-0.221541279583072,-0.00423755528503658,0.19708613199771,0.339674736692715,0.387074533531987,0.321740931965503,0.170049363357848,-0.0509344417163275,-0.297295253184066,-0.520448188684867,-0.672835769595103,-0.736944601729144,-0.695662174797386,-0.53675922701217,-0.288401377033583,0.00660599117601472,0.306125905367981,0.575573045272854,0.756324098781456,0.818181735793428,0.762458331794593,0.599587589346158,0.349359151649132,0.0563295319282356,-0.228554282461555,-0.468792702750054,-0.64016899006736,-0.729926923170584,-0.745657522410129,-0.692746477456331,-0.601137849658377,-0.477466047385175,-0.342270219330896,-0.197191680389829,-0.0668744240796536,0.051244844372324,0.136773997775812,0.199008590991051,0.236795834563861,0.259723214560703,0.26786431440821,0.269925096553806,0.254272056918721,0.216498692521094,0.161524392279634,0.0886990417227383,0.0197256088815393,-0.0369472366382605,-0.0655683463010949,-0.0586608714486552,-0.000388584395896242,0.0877701586945056,0.208242178349871,0.341109604676621,0.460610972405961,0.549408118948424,0.584185506706437,0.56605343997632,0.476085464661906,0.328078868984815,0.117994415798978,-0.115133192986097,-0.374197661416704,-0.604432800149329,-0.796392802527751,-0.911471538139547,-0.946794892263457,-0.885782407757029,-0.757926395525485,-0.573723277335513,-0.372212100500534,-0.181650275039017,-0.0355229897136127,0.0632986300428038,0.112490799284006,0.106035872460029,0.0410850897911939,-0.0721966749187354,-0.224311443275355,-0.406511743588506,-0.586435734082828,-0.731440895317172,-0.812995359881081,-0.828345384763545,-0.761483268550976,-0.624116439154966,-0.434745859895471,-0.229351438129844,-0.0152720124012709,0.156737309635615,0.274007295438473,0.330815648653394,0.325232042097162,0.255074664636907,0.158439346893916,0.0509697259538767,-0.0531957574215816,-0.120094651461314,-0.143395860783829,-0.115235358635486,-0.0436391344745373,0.0634916067731401,0.171777317299205,0.261943120303733,0.301481698191411,0.276538968894683,0.181266922357986,0.0311754293178951,-0.146308558499614,-0.316568646138449,-0.450428217952189
-0.81634641416514,-1.16047287175857,-1.40279379887197,-1.48465136058826,-1.39658269504917,-1.13374177204508,-0.749000062331252,-0.300566965248119,0.139661202018199,0.491837432936007,0.699275280537425,0.728389058989706,0.584992819193724,0.291702536511462,-0.0846711060319353,-0.480796472912165,-0.820196815945258,-1.05018859127074,-1.13368609299621,-1.07053776907325,-0.877705074083044,-0.597938337956445,-0.290779800982826,-0.00526179181875389,0.226087490447485,0.36767404105429,0.410588792311554,0.351210155080872,0.209786830829747,-0.00189187885812392,-0.240613432078353,-0.475560182616841,-0.652154066928303,-0.757776139278644,-0.757086926085265,-0.674061744742679,-0.513559185573724,-0.316545817378287,-0.113819021286397,0.045047422632631,0.153125575472864,0.186490771161954,0.152349146904253,0.0572262717238483,-0.0745066123753068,-0.215558315865588,-0.340624988521571,-0.427672164512041,-0.442735546314121,-0.382326549958581,-0.242537372325743,-0.040078724095691,0.186833614655692,0.397674363605386,0.549597883023633,0.606628469246634,0.551451970126338,0.408454467857942,0.187970090338238,-0.0651340708265092,-0.312950896031236,-0.501028773536404,-0.616986859049698,-0.632073603716221,-0.535304772622879,-0.338365135241056,-0.0861737588070508,0.194391694251162,0.461013841022466,0.659438220958022,0.751700737507871,0.740220472256137,0.620871338735569,0.408781308646482,0.14242276886233,-0.135194077869134,-0.392087075100958,-0.603630924949089,-0.745370625597309,-0.82390483102586,-0.834353143632164,-0.803107545447197,-0.72604179923033,-0.628789391287156,-0.503252441889462,-0.37713925784285,-0.243897388889765,-0.134281038612619,-0.0318110367561978,0.0520241184843933,0.133148761023646,0.199988434688464,0.269917872409111,0.316660407495902,0.337441745507622,0.326635031849997,0.291176864507782,0.245133041042881,0.206146643899854,0.190202602232231,0.206420500843854,0.267858438378217,0.351599879549115,0.454652355154365,0.557484421590936,0.63694319397929,0.677672068214148,0.664441178196824,0.602343810154527,0.475332669117201,0.301055969834977,0.0789392221053167,-0.151770075028221,-0.391673161517543,-0.588938225538336,-0.733879736551715,-0.794643233891651,-0.776790820429212,-0.668822597923165,-0.502970039186027,-0.297419387064092,-0.0910862449785134,0.0908352469220387,0.214332693046466,0.27803166835555,0.281037308550569,0.223843350810696,0.110059339994727,-0.0447465601566515,-0.222348440793925,-0.411264067260571,-0.5784276801523,-0.69827547161295,-0.742209334904513,-0.721478456712827,-0.619648767985527,-0.461709657246566,-0.263763541577179,-0.0728949363121374,0.112508364823756,0.2388262013108,0.307847314952646,0.314170784450469,0.27041117299209,0.175114539649982,0.0702806061696003,-0.0306995935683339,-0.118092773225611,-0.159266193307915,-0.156074158255872,-0.0997858938097701,-0.0115048816009296,0.110621423423138,0.217505538544708,0.299704535042103,0.318325829919603,0.277634758806489,0.165251386971506,0.0104976130410586,-0.162895406352311,-0.320594954787723,-0.442046014314266
-0.539560971326721,-0.858715254933756,-1.08102306141703,-1.16227328454816,-1.08479003192197,-0.856068494304316,-0.519976899638071,-0.137798705776163,0.225815233094127,0.496941433079195,0.627766238123132,0.5936697861041,0.404583924069828,0.0938392191381378,-0.275285448151026,-0.633922733621538,-0.913254788886501,-1.0682993574304,-1.07528626071982,-0.942504389296892,-0.697009845501989,-0.392373467892814,-0.0832369100025199,0.179959664606021,0.373758270881956,0.468184452326818,0.468525126605448,0.378006272775453,0.219915238366193,0.0113227780580989,-0.211859845872692,-0.419419490859872,-0.573654692156106,-0.653643147705275,-0.644485223143141,-0.559087716165368,-0.415854735961033,-0.242118803725659,-0.0765794634782316,0.0511317813453983,0.126130619551909,0.141737280425254,0.103964298924587,0.0194018396980674,-0.0930222816406692,-0.206412757620262,-0.300363808887267,-0.36253612209962,-0.354974033184046,-0.280707121068276,-0.129857220890894,0.0728234311671839,0.301338229002713,0.51048965083701,0.667955536171392,0.733710455014886,0.697162028181886,0.573876323744394,0.374235513805725,0.134259369017114,-0.1149632872631,-0.320776974085555,-0.473083503714714,-0.540638898224661,-0.512028626927967,-0.385283949140006,-0.202160301431632,0.0278053381005238,0.261626012188321,0.454586892372692,0.565122711611603,0.59722901758112,0.532184950766959,0.378638135492794,0.165859266977171,-0.0747371101671179,-0.318910536129932,-0.545225484566793,-0.717707823311468,-0.844048979039622,-0.908252178433632,-0.931618201667733,-0.901383837958811,-0.846647901098361,-0.752798058534554,-0.646695728628419,-0.521159959625441,-0.408941625833069,-0.291299666840236,-0.180985089263459,-0.0632048287270654,0.0469342353519648,0.170556972704622,0.272662825889894,0.345813881443502,0.379089917049905,0.381795162112966,0.356104164321,0.328077567070617,0.315119593577734,0.328838836766216,0.378156778795708,0.448955900000321,0.532624013646584,0.612952250268613,0.666819183012245,0.684079274496159,0.652269787353397,0.575741768245001,0.440823462783593,0.270015525272187,0.0650406533404521,-0.138551082435068,-0.333501116894749,-0.476848733630718,-0.560339221293379,-0.562915697834447,-0.494629261283721,-0.353890324581166,-0.16916563540554,0.0340321104715333,0.22297143554599,0.374823792845087,0.457147516657645,0.470274855505635,0.418520995381675,0.308442772765883,0.151308268188878,-0.0296235741354472,-0.211837865419351,-0.385725192683738,-0.52025370159381,-0.600124142774476,-0.60106641682672,-0.548473148405982,-0.423445645832199,-0.262173036730018,-0.075083947511119,0.0822780315115522,0.226197746508961,0.300047390616001,0.316700462186088,0.272450923240047,0.194916788489885,0.0773700179621512,-0.036616071621717,-0.130758059418941,-0.204901035380447,-0.228609853151399,-0.209152054133458,-0.132436134494105,-0.0362366897118137,0.0955116447169768,0.202225426299818,0.284992909209612,0.295629705614239,0.256625063344762,0.147655120249432,0.00460461527154844,-0.154675545707109,-0.295567961697871,-0.404086557547447
-0.270736851805131,-0.563837604752773,-0.774865004272894,-0.865644208085042,-0.814736050330603,-0.635624266745982,-0.368630592412482,-0.0674349332374567,0.207919701811986,0.395249123282341,0.453348592308205,0.371246363742715,0.156543602899439,-0.14746064751371,-0.486468178970446,-0.786493946241233,-0.993620727139465,-1.06925267331557,-1.00368904497726,-0.810273345745343,-0.527952853677007,-0.212168614627994,0.0844514748304685,0.312946937071378,0.458569394332085,0.500967853030057,0.455727441876131,0.335632322222671,0.1674780056813,-0.0285931657444218,-0.223916731340283,-0.392128201615486,-0.510741748609141,-0.556732951179728,-0.534658115512075,-0.44840526884437,-0.326028272384532,-0.182489045891058,-0.0581802442007977,0.038085150241186,0.0849167610904563,0.0899705639432847,0.055063137674729,-0.014133628733537,-0.105802095844573,-0.193921388371516,-0.262682132518115,-0.305844986635403,-0.28558537754446,-0.208808993523662,-0.0635397148024457,0.123655679834167,0.336049261981647,0.529986597034101,0.684114182996978,0.756717112187902,0.741878947792775,0.645654579028201,0.478630923148165,0.263520706949763,0.0270387481436893,-0.185659750896503,-0.361985420646073,-0.475197849749269,-0.510798161854581,-0.456120740184785,-0.348202139176717,-0.181675551418076,0.00358835920874865,0.176090839849531,0.292044253682393,0.362307222466704,0.352077187020931,0.271037120673206,0.133153905227709,-0.0368389595134331,-0.232275633803748,-0.430469975709446,-0.599164833088295,-0.741688762635895,-0.840879885774634,-0.90575628495223,-0.919589294674707,-0.908260584752086,-0.857761711178758,-0.787159453611037,-0.690217262495013,-0.597950148749142,-0.490760401589635,-0.375944659790992,-0.244820427534938,-0.112769712802884,0.0395463566022234,0.17584073388952,0.280038687475812,0.341996327893038,0.368334938045179,0.355341189878325,0.330206431195978,0.313389017804143,0.315669425258562,0.345984389489468,0.397041279217495,0.458497887350569,0.520043605287919,0.558827203639737,0.569449525458881,0.540623386513613,0.476086423283783,0.359909562741255,0.220619198272913,0.0570615126896078,-0.0977686059923997,-0.234436711467361,-0.316309842181842,-0.34036545538503,-0.292806347857995,-0.189165126346767,-0.0346732376175619,0.146265873762565,0.322055792322035,0.468520358610767,0.566712570096902,0.589490695249041,0.54058215323908,0.433618496291728,0.28048333689255,0.098082134358984,-0.0841910694722666,-0.246107087781132,-0.380602788515093,-0.464905213384075,-0.490663322832177,-0.444617955593,-0.359769476699646,-0.221514417332026,-0.0674829423615055,0.0944473477195164,0.210843901645822,0.307677241464875,0.335645424496518,0.310896278645073,0.233633837285905,0.139958889304338,0.0179686965617241,-0.0930015663708518,-0.173212599825721,-0.230695973427833,-0.240496437284291,-0.209140617518598,-0.119660890321986,-0.0202572599974572,0.113539898309249,0.218476972571138,0.301192803881523,0.308441786177144,0.27538962995768,0.17848926368848,0.0565498305088074,-0.0792268531758875,-0.192051661686108,-0.275850525080936
-0.0597097953237239,-0.326866999809819,-0.533842457526209,-0.639825859136782,-0.625766309338158,-0.505599750653862,-0.314616946567444,-0.0964605597947915,0.0953715213344843,0.20932718371722,0.213406450191292,0.102771311711683,-0.114302180880067,-0.393316008867235,-0.685552763654735,-0.919686987883653,-1.05369368780778,-1.05696279227333,-0.931841515096435,-0.695083710267993,-0.398016915769839,-0.0912597439170681,0.17035210566771,0.347889405685317,0.428505638839762,0.409762236597889,0.311650157531883,0.162525584492923,-0.0109873653141029,-0.184905316678548,-0.337797045214816,-0.451559715963665,-0.517106622525683,-0.519488085460259,-0.474063256737689,-0.385517763060824,-0.280748685364775,-0.170958350641867,-0.0878150100258531,-0.0268266162437974,-0.00755226514065786,-0.0159089358275158,-0.0505255815377805,-0.103875665963606,-0.173045809404976,-0.23459273986114,-0.277418918446906,-0.29796245217578,-0.269388573892725,-0.19688870272004,-0.0687384842920305,0.0916002841657668,0.2731257769025,0.441074523326152,0.586326561545486,0.66707045085436,0.680269868877149,0.622375309628034,0.503717872495005,0.327592831331069,0.119218805373774,-0.0881187452723758,-0.274598185944364,-0.422724701461886,-0.510274125727393,-0.520672055342542,-0.481433180340388,-0.380048588679221,-0.247596068395973,-0.104077400256635,0.00821844532076471,0.107711387745706,0.148657147259838,0.142791596889064,0.08912088370743,0.0079977980706952,-0.114504355833544,-0.254721131666531,-0.39120181939517,-0.523691876713627,-0.636618727217189,-0.729998769218133,-0.784532039142443,-0.819352726427476,-0.82134237613034,-0.802058553922999,-0.748911592566152,-0.691498119206759,-0.610356146059304,-0.507898868943363,-0.382665481307752,-0.252990071121807,-0.102857516649412,0.0367880857260292,0.141945103829787,0.208926774571304,0.240496628182588,0.233197874080154,0.205074681770655,0.182712173625685,0.170530743156038,0.182018092197739,0.212185263992071,0.257422284605853,0.310694476024755,0.352770891673366,0.378003763740267,0.376610708080298,0.349148558746204,0.2761589731872,0.188758026563539,0.0824760641837814,-0.0124909418023874,-0.0884327852491489,-0.113947840663688,-0.0916273748811643,-0.0132050449637108,0.102723857457604,0.245801892774689,0.397833619963871,0.523632671838064,0.609778799922866,0.640119666330403,0.598680907607069,0.490313231587719,0.339899529183936,0.160779017522647,-0.0234318489893311,-0.18307151097346,-0.301085095797363,-0.376183963240062,-0.395027282272722,-0.359035539647648,-0.266500057491044,-0.154345484931031,-0.0147578825957646,0.118195632824425,0.238544082426164,0.303276319747512,0.342399474314053,0.324074153100747,0.262509739285455,0.164823779566983,0.0671875711132694,-0.0416842576622417,-0.135772169689253,-0.190972102256171,-0.22351582244948,-0.21737867958125,-0.179718385713363,-0.0921556979891686,-0.00496750297163278,0.109336013488733,0.196552230203451,0.268775504236647,0.274844064341015,0.253987318723,0.184130004115557,0.100057726013316,0.00289119708423847,-0.0702243664067514,-0.121810481420904
0.0473283741231167,-0.187605920539111,-0.387000273653226,-0.503813600820487,-0.524610542130303,-0.458054195970799,-0.336356920264779,-0.18940401761466,-0.0655500962210231,-0.00474779115875131,-0.034531998889599,-0.153416152365199,-0.354375989292914,-0.595201963727859,-0.831385965742992,-0.996803681381966,-1.06245849908319,-1.00391921339158,-0.835179991790171,-0.574539035913363,-0.283243065796934,-0.00301963935737145,0.205619389427442,0.321458935187961,0.327719482057283,0.244304232740358,0.0903439595638112,-0.0832961249962408,-0.258488576623152,-0.400533613668174,-0.501574190433187,-0.546475985289296,-0.545678444318604,-0.48920711055524,-0.407692305549694,-0.306204313477325,-0.211105795113987,-0.128504724464886,-0.0815266774970398,-0.0551878328916379,-0.0600993164295341,-0.0819282442747986,-0.119445495053545,-0.162376319043855,-0.211784972190082,-0.254620682946938,-0.281627127729002,-0.288293120245722,-0.261593727111196,-0.205432442522655,-0.107154284908978,0.0181066026361125,0.157908644584587,0.29157650782586,0.419862168145167,0.506256235481221,0.545548657588902,0.531799482968283,0.472811685045645,0.35303978902246,0.194474772258114,0.018276786827867,-0.152863534426793,-0.312885415037006,-0.429030918188534,-0.488269442941731,-0.505954419717544,-0.467367252056166,-0.390436370954567,-0.288552070859123,-0.193341240553301,-0.0825627086115896,-0.00318329179532749,0.0556244656896711,0.0821962185042512,0.0905539691807894,0.0494146520750608,-0.0168859084579608,-0.10005379358474,-0.195555450428384,-0.296619386731338,-0.393735614953615,-0.474785700483333,-0.547456455881312,-0.605462213652457,-0.644103113910142,-0.64903240912631,-0.638567310332211,-0.599435735874831,-0.524198463922556,-0.421711547455594,-0.310343918250894,-0.181511777923479,-0.0576959935782399,0.032983767019311,0.0908125259404204,0.116609716184566,0.106834993377241,0.072237742697129,0.0405307976784508,0.0126859329310866,0.00741266198480621,0.0226608915689339,0.0612649231997638,0.1155089470184,0.172900087958184,0.222954333056424,0.258548545363739,0.276285491847706,0.257996298517913,0.230405340279525,0.187679657673893,0.155637694192779,0.135211374959431,0.157259067969028,0.210157505680777,0.301658791197133,0.406001955907507,0.519183544520065,0.617039022725285,0.675921306399071,0.685034333387511,0.642415937776777,0.535904636124468,0.379392921377163,0.201275419847108,0.0170600639102887,-0.15072494346571,-0.271783510796812,-0.334808268361187,-0.345718958324507,-0.299220163772327,-0.206443250967375,-0.0778655534056928,0.051300021519958,0.182396329526872,0.290445224394781,0.370194146822347,0.393813221005348,0.387774862295955,0.340981568747444,0.258873881704893,0.160039314775409,0.0732120711421142,-0.00698072979500564,-0.0744446316608426,-0.0977576856797632,-0.103381699193679,-0.0817109435227129,-0.040943011583413,0.0398325456658593,0.110494486846393,0.195741746655661,0.256917219702514,0.305986610956375,0.300421545994287,0.27909805331325,0.231135200959221,0.179534308007522,0.120574167657437,0.0877456596499404,0.0711944972356156
0.0708852611102288,-0.140647202379675,-0.340142997999905,-0.472719177150583,-0.524195512892205,-0.499072659426432,-0.426530317464234,-0.327660797426894,-0.24503935640511,-0.215779794604018,-0.262634348139131,-0.380821936505373,-0.562317205410562,-0.770099444773521,-0.9592420256342,-1.07005947179809,-1.08643920284137,-0.987337611024086,-0.794332986446396,-0.529498949550892,-0.260657435167157,-0.0195881885353162,0.129959445202162,0.1806579552802,0.118169142197729,-0.0213023706694367,-0.215394182505092,-0.39893472016901,-0.558710582461432,-0.658501507652187,-0.698030619684258,-0.671670080150707,-0.604745236383146,-0.494064254530636,-0.379093822527696,-0.266771681943364,-0.180437376477941,-0.118613141377848,-0.100589504599549,-0.100730854886744,-0.12252446855849,-0.14893017335881,-0.183565052291048,-0.206927575897078,-0.230201109057862,-0.247868634469093,-0.259723677100083,-0.256181643245614,-0.240535929756082,-0.209473568724956,-0.153584421283368,-0.0725949558302178,0.0152267269710854,0.106362364477879,0.206740073749088,0.289102652337371,0.342890445205859,0.368122493436055,0.363751348292228,0.303230547692144,0.202543422367789,0.0746439212544433,-0.0632197541730436,-0.209529968907091,-0.329380162790193,-0.411761885393448,-0.466274016195161,-0.47710404255937,-0.452573869755844,-0.397580065008589,-0.332922854617069,-0.233493245005732,-0.140425443361892,-0.0436075765609138,0.0412997796340563,0.120012764947024,0.156187021427491,0.167566362504357,0.153181902746956,0.111462773395635,0.0460986458781845,-0.0355837820927439,-0.124452322593392,-0.223095308580612,-0.324958820426004,-0.415658386208742,-0.477395664174872,-0.516743756045123,-0.526296392954794,-0.490484340238101,-0.426648344814763,-0.347803808394556,-0.256391978413173,-0.160135364782118,-0.0918937568019742,-0.0453087903874307,-0.026784009043428,-0.0349582721631059,-0.0701851399692223,-0.105351288485244,-0.142397647644764,-0.156811464078026,-0.151078582891303,-0.117581438064036,-0.0604500807766256,0.0104535388930083,0.0823932949024083,0.150940451688292,0.211308633104836,0.243498216295914,0.269629128363379,0.282019710240915,0.3014209041523,0.321762227017849,0.373937084532765,0.441649887353364,0.529707739340316,0.611602084096174,0.686611725008348,0.726604653400162,0.717424619802506,0.656156222122882,0.548291869255938,0.389852826702984,0.20093462921811,0.0130345250315511,-0.161342382421392,-0.300304881150242,-0.373140083013797,-0.377604787170834,-0.324883266195704,-0.218473019904254,-0.076752068135169,0.0730747863581697,0.20741096195585,0.320876837098138,0.399774727795688,0.441018104595213,0.434711789175374,0.399464656165258,0.337299388172863,0.251511702589233,0.164039962560499,0.0985728005965172,0.0510297755911754,0.0185177223309828,0.0264262556268377,0.0456385360408788,0.0753191345938537,0.110874502896921,0.169530575376501,0.210422613339617,0.254281344447769,0.280268348245646,0.299339824425001,0.279125349637583,0.255858692589287,0.22738681379773,0.206486626163199,0.1828530087422,0.187090453674397,0.201616495925309
0.0461748832399547,-0.146506805414185,-0.347975611919236,-0.492242231677916,-0.566523573267399,-0.56542351766812,-0.520012446676035,-0.443577193386807,-0.375365804219508,-0.353665345014918,-0.398615371765977,-0.505599619867954,-0.66255779760858,-0.84200384456638,-0.992677494803098,-1.06656130883118,-1.05361693899125,-0.939091842213067,-0.745633247234888,-0.501775440976351,-0.273534096689589,-0.0832603710084499,0.00617246858811028,-0.000908509661867903,-0.117046627832502,-0.292964024694223,-0.507711712026212,-0.686677526755228,-0.821011223096435,-0.873598470242518,-0.853600926764951,-0.761335301018638,-0.633501313643909,-0.476347648221599,-0.332214993078414,-0.213074198562652,-0.136143374120333,-0.0973987252935478,-0.106987693255115,-0.135059862152128,-0.172125471821351,-0.203076247533911,-0.230739721629563,-0.232473242672149,-0.22678649119203,-0.216239922637405,-0.209823730165306,-0.19484624281299,-0.189747577781246,-0.18356234698515,-0.171327258029093,-0.13736131999617,-0.105900439753597,-0.0601789738408094,0.00785409253841046,0.0807622767160891,0.144655679794772,0.205631839930229,0.250991664577501,0.246031122725935,0.20305691646687,0.126681306032407,0.029932543216423,-0.0873391286616333,-0.189043629844891,-0.271496097825915,-0.341187993219574,-0.385616166384159,-0.404852045265885,-0.398844209662416,-0.375366356515822,-0.306612682787115,-0.222414675880321,-0.114561158180391,0.00236071934278234,0.129453042811027,0.231005888357565,0.316431782157929,0.377027861916948,0.404196896373436,0.395293314453549,0.349934406614257,0.275220399835904,0.170703055272167,0.0445104664103226,-0.0853818438417852,-0.192416253228528,-0.276914149677564,-0.332334151669886,-0.340171918169883,-0.315265528421203,-0.272709214761917,-0.221379436293015,-0.159780037429595,-0.119240369635638,-0.0940517299018296,-0.0927031878411993,-0.105493517605147,-0.140766622066074,-0.176581268636526,-0.214533561247868,-0.22590741755674,-0.219976065194735,-0.186985060624859,-0.125047435286616,-0.0441952315940167,0.0394647430853703,0.126143510651246,0.214350667761518,0.280909352791184,0.343472923977096,0.395681141858339,0.453204286338406,0.50088242206481,0.568603337098805,0.63778489919168,0.707042151618343,0.751968280478225,0.775484625559334,0.748005543196006,0.66556399580789,0.537306630977538,0.373141931329713,0.178367276945681,-0.0207198498912266,-0.194074584798485,-0.334789200460148,-0.424488159071876,-0.436962156428093,-0.381985291778425,-0.273400152739114,-0.1255979701824,0.0415318847451948,0.189335848745043,0.309617333221217,0.392317714072531,0.43700544332789,0.441865135154559,0.413624676689964,0.3605541063813,0.295602093397529,0.222173306730758,0.161754179318841,0.130598833538077,0.126510829081945,0.137277167180258,0.178543301238075,0.22192013780045,0.25779087088975,0.285830991556013,0.319462867783787,0.328230768280626,0.327037318575442,0.312597785552561,0.293048523075501,0.249908895687254,0.216321278948343,0.199754043678783,0.203982544592871,0.215439739853989,0.256663839092214,0.304733879367928
-0.0052010024945072,-0.180852034486129,-0.378808359828184,-0.527464071664849,-0.607337704958976,-0.607417029895389,-0.556741876875745,-0.471435754638521,-0.387879369098473,-0.349371260138495,-0.374493635536835,-0.460304319657489,-0.58824128136078,-0.741117342604081,-0.862687462346356,-0.916180881949059,-0.89471023829539,-0.789319543990582,-0.619545209263691,-0.418458206347451,-0.246052869531526,-0.118290493593662,-0.0899582430398062,-0.14998896956263,-0.307816202026348,-0.506340297537232,-0.724921654290113,-0.889300820905099,-0.992872371074662,-0.999795211745314,-0.927701574613346,-0.781886025782071,-0.606313853842233,-0.413752442703238,-0.248478062602681,-0.12562863230066,-0.0584598673932484,-0.0399094183945094,-0.0750217489673186,-0.130695670443729,-0.185843190044231,-0.224280684407696,-0.247412078972297,-0.229998898917487,-0.194791779690864,-0.15200836710768,-0.119403659012517,-0.085447125007679,-0.0780000007915936,-0.0851292417018835,-0.105241398272836,-0.113859650731668,-0.134894416674536,-0.139656277897037,-0.112937916873073,-0.0622312500045886,-0.000617242641985302,0.0821401242848774,0.167272556747747,0.214916867765028,0.23230536722238,0.217285735607614,0.17559112553018,0.10582381902654,0.0372307980904776,-0.0325775679737551,-0.107905427622382,-0.178030448913753,-0.238107999539947,-0.28110739233245,-0.303902551601074,-0.280788899606532,-0.226608483865856,-0.136198408888021,-0.0172456088094396,0.125635504786589,0.267601494376036,0.404450837151013,0.527378000553497,0.614817133625783,0.66448364302696,0.661448481949716,0.611974648556666,0.514865260219432,0.384006464578511,0.23339783019852,0.0974495897910777,-0.0180288984887901,-0.107481294751696,-0.152200451960312,-0.159482161320817,-0.144382315054179,-0.119491209203792,-0.0806399028123654,-0.0556997897877178,-0.0421719029537314,-0.0493301427570561,-0.0627181206900833,-0.0910818290885714,-0.11880468986501,-0.1466211942767,-0.145914066953441,-0.130245917577543,-0.0907980115702362,-0.0224447805111181,0.0640778112927008,0.150565200743197,0.240780534038943,0.334449695362306,0.409755115181666,0.48131075643881,0.547166619936791,0.61738821065975,0.673124639321406,0.740007331509414,0.797720808841369,0.838293957422569,0.841918416531321,0.813012802325892,0.722871098505433,0.578792831073744,0.399780985226395,0.197627549473814,-0.0141474453903996,-0.203702539294074,-0.347049663409933,-0.44318294034061,-0.477653749856907,-0.431171452002479,-0.32593466315027,-0.177248340492568,-0.00731705743925344,0.16406384473936,0.292288786843069,0.384008423057301,0.427948254759964,0.434719355134508,0.404332785723458,0.356635487626629,0.292319067301231,0.230686952562787,0.177276066146359,0.150337987160656,0.157385780324994,0.197346509166359,0.250802143821889,0.323049068074286,0.385663300815335,0.427269812815845,0.447463034801437,0.4576864861544,0.433490433244004,0.392301623657616,0.33952985258253,0.28419324829274,0.219659779358708,0.179917056834747,0.172942654771541,0.19732224525528,0.236734984814937,0.304645428741879,0.375375985182566
-0.102996271886917,-0.269949826467906,-0.466198184092718,-0.615913494126056,-0.687834852414939,-0.668701139887052,-0.589065205394795,-0.469235254709918,-0.347328513826168,-0.272733629386947,-0.266468379677969,-0.323943035302916,-0.425922735886097,-0.561215954662875,-0.673164735406873,-0.728182992899178,-0.721591911827023,-0.645468679623848,-0.513702819955256,-0.3590947121182,-0.237673765831492,-0.161565446679876,-0.174906858835097,-0.267111579555563,-0.444022495952066,-0.644515127761718,-0.847695664927018,-0.987175063469231,-1.05691603924701,-1.02257783077249,-0.909983334828072,-0.727078066035474,-0.521910816457581,-0.308512132680833,-0.135579177046084,-0.017911549615326,0.0321663665588135,0.0290709972351324,-0.029979954682112,-0.109234712109832,-0.17746217091226,-0.217413954687626,-0.230948383915367,-0.195307697025167,-0.130841524653506,-0.0570425398172417,0.00234911599928085,0.0520663765128545,0.0639599964798516,0.0429023310389929,-0.0108441444627668,-0.0662381224622944,-0.141538025602997,-0.202420169752152,-0.225708978800619,-0.208194700825598,-0.162583456259086,-0.0740197607165868,0.0365786806314389,0.129118647135667,0.203909850997297,0.254937451573404,0.279190779310938,0.270174956528723,0.248602489656819,0.206471606966594,0.140654519940011,0.0571898824076371,-0.0340222017247374,-0.122554284023129,-0.196272205753846,-0.235341813813053,-0.236286517409509,-0.193276931208057,-0.105291891227666,0.0218565322661072,0.177938443048877,0.346922094581331,0.517026644070689,0.658936737233886,0.766845792870281,0.814862832218521,0.804288366490669,0.73500575915714,0.622149855313226,0.47659413981382,0.333368749025309,0.207519053902754,0.103530156880965,0.0394635736764037,0.0165632952094441,0.0218443986345828,0.0387316533722184,0.0699101202599039,0.0930634272872719,0.106156153691991,0.100228537885971,0.090422703066568,0.0726294500622699,0.0551273224971183,0.0387647909330267,0.050826302757676,0.0776250446312648,0.123839689195775,0.193729520106558,0.276022836102629,0.350015173550739,0.421768561743371,0.491581083777664,0.546329777839311,0.597738290045556,0.651040114558512,0.711476017237934,0.761231780590795,0.817780653641319,0.861158505043125,0.877419306310107,0.849504069324819,0.78265825218427,0.650212115147573,0.467953433650214,0.260353922460241,0.0426232811919971,-0.16700705199386,-0.332128056392062,-0.435606578383832,-0.481308100951704,-0.461496345560714,-0.367018566405177,-0.230851035384462,-0.0687356585145968,0.095087796173539,0.243177719288707,0.334114028226859,0.385626138966904,0.387727650736023,0.3578080415921,0.299966499478524,0.242164246620762,0.180252643980826,0.134812455171027,0.111401264516223,0.124844216106662,0.169653961341405,0.248286531250164,0.335720010113989,0.432892436907115,0.504834041201039,0.55007675239206,0.562528693392825,0.556158103349342,0.504003920383033,0.434448152245646,0.34942803862057,0.261244632109345,0.171350792641049,0.118981538813047,0.108283745050826,0.138572841503311,0.192815220821983,0.275800358340736,0.359420933848537
-0.144849182292938,-0.312206469279608,-0.507201023089625,-0.652241168672841,-0.707900157425141,-0.659943979545057,-0.540544697269395,-0.377258020161061,-0.211481820531667,-0.0971303029659549,-0.0579670296848886,-0.0919156275767276,-0.178561614361009,-0.310589369365176,-0.43245183515818,-0.512822991191894,-0.54321815073959,-0.518002651647136,-0.441010401529145,-0.344982631166131,-0.276527748749046,-0.245790321455332,-0.282593740861733,-0.385059269727298,-0.551671105432184,-0.726221354235337,-0.889953214807599,-0.99120615145613,-1.0205170140602,-0.950876086259029,-0.812010980793537,-0.612373037767811,-0.39910752190471,-0.186987192831952,-0.0237078088603862,0.0781155920612358,0.105641203396448,0.0795730871052653,-0.000810263701703749,-0.0969638934135979,-0.175960812634998,-0.215653674378311,-0.216827765967652,-0.160065464560035,-0.0661757924664573,0.0441714642521974,0.140576521276334,0.214069021316874,0.237775998166963,0.208710792546796,0.127291494873227,0.0225410085712679,-0.106226562640212,-0.225428257773568,-0.301478147963258,-0.327386890270952,-0.307095179005301,-0.230063085887649,-0.113977614435616,0.00231915035007659,0.11521053153605,0.214308287102241,0.290185825955062,0.333240675339801,0.353123814126734,0.339608648038869,0.288558548914124,0.20439540857703,0.0953951057605524,-0.024865002517473,-0.141578476811075,-0.239003202462177,-0.301959367297109,-0.318878331885568,-0.280662093935575,-0.19042442735962,-0.0446498633737244,0.133100943016971,0.329457000077461,0.508897108256489,0.665364735034771,0.762098588842642,0.798586878173384,0.770171554402454,0.694775781634753,0.57379982436906,0.444300247230392,0.323307107234497,0.221637849636391,0.153083926414777,0.128367245010895,0.134857378201435,0.157129834771236,0.192355850981417,0.220569738646433,0.237602233444946,0.236115587365045,0.230216287636987,0.21731743821638,0.207155405665893,0.201776509322054,0.224731347674383,0.262145865440849,0.317926561468064,0.391769026348657,0.467316728287293,0.522543875380892,0.564531647864723,0.594204358922484,0.604782794643491,0.612535781166278,0.629161909886042,0.658611131810805,0.68679557521962,0.725486877611634,0.755224772266536,0.757026342166519,0.717452110837396,0.637171269449205,0.493473428280796,0.302340947875881,0.0945797785873345,-0.116475215525435,-0.30628943703298,-0.436719646726219,-0.493998111421,-0.488890621603052,-0.419674675289227,-0.287685599405969,-0.134773089159062,0.0244700536457355,0.166514947088082,0.279270096947003,0.326951833768445,0.333719591056265,0.29149005650054,0.222195501370874,0.134907061510773,0.0624730150514993,0.00224559747850767,-0.0284794515241385,-0.02324832901452,0.0239418588575822,0.0986248359321955,0.2021579122584,0.311435741731091,0.421053236766222,0.49453176285753,0.538270993531964,0.541545431277028,0.519994576030838,0.445874887340012,0.359467898262273,0.255033473017857,0.149744692404336,0.0463517639684458,-0.0110176968184656,-0.0265013455566013,0.00702334912772423,0.0704827015090531,0.165247864832211,0.260437663142931
-0.207960090694465,-0.380473562092662,-0.565751989101877,-0.692617265463199,-0.71650122575658,-0.625927471117578,-0.453113334641254,-0.237404658075089,-0.0207429183965184,0.137278581720814,0.2099539381608,0.194495353032191,0.115146023544799,-0.021642714183206,-0.162497680684352,-0.275504351463158,-0.344892033897897,-0.368146343838597,-0.342600900949056,-0.295229474151473,-0.265526419379554,-0.262154629422402,-0.305691556308073,-0.399524089747601,-0.540905514644656,-0.677360218497625,-0.797182303982087,-0.85802300558125,-0.851038379114884,-0.754536999104617,-0.604597381639894,-0.405277004463318,-0.202913283021442,-0.0107099985205483,0.126990272323082,0.201869363307853,0.201106186976895,0.148318140523338,0.0463371014819367,-0.0675772591318156,-0.159234961457877,-0.204718211202959,-0.200279240452641,-0.133418437183309,-0.0218142249435517,0.11152270764411,0.2334076245633,0.320883790831454,0.352025708687701,0.317105233986799,0.220175165533177,0.0838824560367797,-0.076345574327891,-0.233549145776916,-0.348907753241891,-0.414154390538598,-0.421595608606703,-0.367372561143346,-0.258960109220227,-0.131986318710882,0.00760483929523239,0.142618184549301,0.262578867869607,0.351535640381101,0.411102877131639,0.427086112225699,0.398039976126496,0.324632749206948,0.211758921754082,0.0731648138824322,-0.0732980144744402,-0.216653063244474,-0.333865293010426,-0.405741733146706,-0.417957392015022,-0.371018584987298,-0.252043470988922,-0.0857086624904226,0.112160448374822,0.306670274881279,0.490147040570293,0.621503397218329,0.696772037076678,0.70936592754789,0.67594076267845,0.593556102031506,0.496629161477206,0.401531574008467,0.323746770675545,0.272728979580765,0.262625281731028,0.281138221186663,0.318225106251568,0.362880276530235,0.398047805538729,0.418460389785624,0.421304111550564,0.413725566540185,0.397691062421315,0.387081197993726,0.385484693852082,0.410691246688244,0.453242117347661,0.516185403332657,0.58883139547528,0.652835008053525,0.68514922796815,0.693027522883767,0.675398216888613,0.636409133047311,0.593550928293502,0.564390416663783,0.553070063675405,0.553286676159668,0.570747896275266,0.58934217071056,0.589254069996842,0.555763577294863,0.485790401056868,0.356693873536443,0.183704072901193,-0.00607999160981525,-0.197634912910515,-0.36584912709728,-0.467216221197436,-0.493330682418364,-0.453510038468937,-0.351205374504698,-0.196909012558392,-0.0378162028494524,0.112334982656759,0.230554147876376,0.308234978000573,0.319775902958038,0.288412113301133,0.209775506935579,0.110342158796155,0.00193246888960143,-0.0792443492419304,-0.133311254185355,-0.143926141187227,-0.111662732349602,-0.0332058464561854,0.0646444048523711,0.185869723470775,0.304383365969392,0.41674674376506,0.481954383773643,0.516463666933401,0.504735538061034,0.46732936850012,0.375865770990573,0.280421397883162,0.168903935906116,0.0595127652104274,-0.0450511423394865,-0.100969652904902,-0.117595133388945,-0.0848278864651596,-0.0194620533991432,0.0759181520995257,0.171228904713439
-0.231105137920531,-0.41903664124896,-0.598371995825473,-0.706671389674634,-0.697073539035846,-0.563453039506819,-0.337533171525403,-0.0732919889179172,0.18673009036049,0.379042507849255,0.475984259567316,0.471323262353829,0.393665858085597,0.250772332702606,0.0932841481819033,-0.0466198161162491,-0.146823101251733,-0.206797565783679,-0.219060090579529,-0.204448200650141,-0.195357600661629,-0.201798185058433,-0.237636439246637,-0.311011740505948,-0.419461260482564,-0.517048281945357,-0.595706059817969,-0.622066689236649,-0.587835786208791,-0.476437813180746,-0.327715710847243,-0.144193083011498,0.0308924828366362,0.187876140334895,0.286557416789426,0.325876389230953,0.29412588912927,0.21808512669912,0.100183424915279,-0.022440025138264,-0.118903362071241,-0.163538206785327,-0.150986082270234,-0.0737248751668097,0.051761445213238,0.201255838974299,0.341330307896306,0.438687421883557,0.477573695337821,0.443978808853168,0.344109750668058,0.193922675343664,0.0202069080806316,-0.159178103632437,-0.304119981568613,-0.401874137500633,-0.439670964975178,-0.4158791502558,-0.329037063190348,-0.206707909791483,-0.061062402628174,0.091286161829293,0.238336943632251,0.361853633318293,0.452610422670549,0.49690795744042,0.493999591239465,0.438913014585367,0.332536163260181,0.19076105086776,0.0312252381252147,-0.140216861641782,-0.29535617701272,-0.40997289368457,-0.468267929858907,-0.46936560498862,-0.39156963967988,-0.256323656813157,-0.0813316021692599,0.101368677429494,0.285174606644251,0.426598513125624,0.517646618670462,0.554238588222581,0.55260172769166,0.508966509094806,0.451194134763941,0.39581256285912,0.356746422489762,0.337691044828115,0.349980635352563,0.386679161000153,0.441508955081897,0.499811135019664,0.545928962238205,0.57639366838402,0.5882155498123,0.581946941033173,0.561748689856844,0.550161474372589,0.548766701463706,0.573134848950539,0.617905312354607,0.687995029791789,0.757542599947272,0.811531512585079,0.824901542026168,0.806164137396754,0.74819868767209,0.668204565888307,0.582931698159379,0.512394285994461,0.460385374943727,0.431434481581006,0.427986871069527,0.437069568039053,0.445249877312516,0.43603606846174,0.401084972602338,0.314336845404454,0.188935469990795,0.0398383109542846,-0.1163467119107,-0.25626916853952,-0.332958154846909,-0.342445965327726,-0.289268916720353,-0.179971879321054,-0.0285539830438695,0.117219025396521,0.244724346504923,0.334355306264785,0.380026147042651,0.363213453777253,0.305325707927376,0.203606566327914,0.0878166340150499,-0.0303937108608911,-0.112122510501318,-0.157089957235621,-0.147468550488972,-0.0932067851022282,0.00919079336231064,0.122139807258955,0.251628719490522,0.369165093588003,0.472825280880936,0.519518288528727,0.535523946386223,0.504363230329491,0.449722098648522,0.347447670437311,0.252100550934929,0.144133272684228,0.0394604150196671,-0.0612839305856608,-0.11582684240742,-0.137970667017291,-0.113621246410553,-0.0586546165097889,0.0259549682711994,0.106056378639068
-0.20547616955174,-0.422385700977606,-0.605712485086035,-0.700317580872544,-0.662778418562665,-0.493665405299862,-0.227565625591289,0.0704420862297762,0.357115122340516,0.563883363435199,0.667155026295788,0.654378523450094,0.560032302433931,0.39516345404699,0.213294118868799,0.0431088036584842,-0.0806684833760825,-0.16080587300738,-0.187679212332084,-0.180874867931344,-0.164917447330232,-0.157102604719279,-0.168072087485057,-0.208608217236531,-0.27576666419068,-0.331928792376944,-0.368990595205842,-0.361167976503188,-0.303100096069109,-0.183800679728043,-0.0441840987496485,0.112423747228686,0.248811012869988,0.358278608138232,0.408982700332058,0.404982072604861,0.339156385516317,0.238511253773386,0.107977541592524,-0.0184341486372128,-0.112869513701905,-0.152651573266743,-0.130695748460144,-0.0453845430794549,0.0859059300758552,0.239528842064014,0.384093169660854,0.480105356456378,0.518153668228612,0.485570883714765,0.390739971345987,0.243424750410469,0.0766920714017526,-0.0998716809903169,-0.25073105796322,-0.363569582756335,-0.421740700334864,-0.426580546773917,-0.370640110361714,-0.272597999286923,-0.144420417021093,-0.000931959258797764,0.149361203331616,0.286413319930564,0.396275162379184,0.461676862767689,0.482904184607038,0.446351573608627,0.355278383793352,0.221731216212455,0.0656272404030652,-0.112572486712985,-0.281039168965147,-0.418799491530447,-0.508500453616427,-0.548484279708903,-0.510481381692437,-0.411759424384439,-0.268677564185927,-0.10844110167711,0.0614217187353289,0.197218927385764,0.291445932569935,0.341937189035901,0.364039132097839,0.355415193726432,0.337904217675295,0.323823034311652,0.323651741433875,0.335530548833646,0.367897555650278,0.416974659432938,0.479850063296601,0.544056622778164,0.59472479161843,0.628928950691866,0.644508531258464,0.638266215167045,0.612225383743879,0.597141843679423,0.59283869343858,0.613938178065097,0.657983999094507,0.732843106437891,0.80067603894044,0.850440317260444,0.854893277064676,0.821841168210324,0.738128123015896,0.630557070048168,0.513955022511604,0.410412924409356,0.325334179355672,0.274705540717066,0.260027698402356,0.272794728927632,0.304078462437011,0.336582702121167,0.355187865161332,0.329670119925234,0.269090986064056,0.17715387179942,0.0684884155729799,-0.0363893171074247,-0.091675170751844,-0.0954125748453259,-0.0462280066735387,0.049584226541915,0.177260745458836,0.294795343824325,0.390778052835465,0.44879030007277,0.463645836322428,0.425695520867595,0.352584938975932,0.242213144047824,0.125190250173115,0.0141823152209754,-0.0573778148049427,-0.0880193490068924,-0.0599595715500266,0.00959770106812429,0.123506067172477,0.242574032503391,0.370624246715532,0.479182513813941,0.566513120684192,0.59096763298285,0.581494838856722,0.526122887593433,0.449888288214362,0.337205896270671,0.239375886315919,0.135883077270374,0.037117974712135,-0.0577863409262866,-0.112250014846519,-0.139161390322975,-0.124863768007508,-0.0836541056872919,-0.0153393921737979,0.0434236557014864
-0.111953238511829,-0.371244980280097,-0.567750323640291,-0.654497480193324,-0.596257640327737,-0.400406825985376,-0.10825424330934,0.204387896424395,0.494271641411089,0.691802011192414,0.778030951710602,0.738096627444514,0.616222133117317,0.427042967351297,0.22776179042248,0.041387958257634,-0.085139278129266,-0.163092323862208,-0.181447476640008,-0.163625297052107,-0.124116030445004,-0.0927797920157538,-0.0738524531111916,-0.0795739141804698,-0.103135752778027,-0.119333552249815,-0.1153138050906,-0.0750668794456837,0.00355624186019129,0.123381061990484,0.24872877578336,0.37291175445433,0.466229253481047,0.524550735553603,0.527222788881939,0.480364956909731,0.382473099003601,0.260239619779045,0.120709873063491,-0.00562756337025971,-0.0951366247995536,-0.128128194906765,-0.0986609879633204,-0.0102648728026478,0.116936490674387,0.261966539339382,0.39708767944989,0.483853343074465,0.518758181346749,0.494028535289917,0.418283046273887,0.294415916067448,0.156861805776897,0.00589273599341973,-0.131003461509235,-0.243023688645975,-0.312264398239875,-0.344302046895703,-0.325703588197531,-0.264996496155539,-0.171098818612424,-0.05578281988877,0.0778942524747445,0.211683394490862,0.326875950804894,0.403055540616424,0.44175149973477,0.424555805131594,0.356882438144225,0.247036942643647,0.117302683410513,-0.0364018211864185,-0.186290401524746,-0.320118554396319,-0.419359484672491,-0.485985960024561,-0.487176657661601,-0.433463371375331,-0.336177436192989,-0.220038239127528,-0.0878548300481235,0.017690110415868,0.0916130090558381,0.134761728321545,0.164919580769091,0.178179328434431,0.190874203451923,0.210724898478838,0.241714380458182,0.276197144434004,0.319242653279912,0.37079089095258,0.428842393469928,0.485061692470948,0.526290138215322,0.551872802608694,0.559581709684096,0.547375603495459,0.515973683015294,0.500440648497629,0.498569283241031,0.522269244586828,0.569608699222248,0.649826914667523,0.719658902220152,0.770214169924777,0.775682282884091,0.740945225844612,0.649309888334284,0.530726296065796,0.400992279226734,0.281544278116454,0.180112812011713,0.120923153929308,0.106990678964743,0.131556214632937,0.190397103772701,0.267379450765508,0.340834902080828,0.377488941063178,0.382384641287749,0.349565556436304,0.287696071079073,0.214725182006104,0.172438935836666,0.162649584468173,0.192413616903597,0.260884488826633,0.355222960186207,0.442210879512825,0.511729477307566,0.549576099593865,0.548623758697638,0.50502126591866,0.432819696445527,0.328118148101396,0.219534546085321,0.120462769055893,0.05739950654739,0.0314741909997219,0.0619015283734384,0.131012982222726,0.238283729225809,0.349590363727208,0.463891304240911,0.55728528604518,0.621789605204835,0.625607437131709,0.592706947851656,0.520724595566722,0.428392154777484,0.314452645602275,0.220542035332998,0.131275315012122,0.0491434324695669,-0.0262525869239152,-0.0677441486611349,-0.0882964503799573,-0.0787546491342718,-0.0520026644648291,-0.00492403124457124,0.0267247931007211
-0.0645486463397965,-0.371821702864124,-0.587344741032928,-0.670970348182111,-0.596314539775388,-0.379645207268513,-0.0697377858773189,0.248177787352376,0.530553900462957,0.707456895306668,0.766845712997887,0.694864494134415,0.544347430225014,0.334417399583545,0.127702260115779,-0.0569044307385833,-0.165152110800076,-0.214902351425732,-0.198829648189052,-0.144938103861905,-0.0661476900645223,-0.00243844672359918,0.0453756733440195,0.0685071532803618,0.0737442503072309,0.0788969339559299,0.103241570643229,0.155880988367802,0.235159221488437,0.340345088557049,0.44556609142061,0.53576368201044,0.589500710609814,0.602583805400702,0.564107679170765,0.477313085416747,0.350220891804973,0.21014744586925,0.0685571327231661,-0.050674928705995,-0.125731135763993,-0.14166200431731,-0.101094217995861,-0.0123570500714177,0.105739861749285,0.233089003632177,0.345126008412144,0.414140961644495,0.443263942815056,0.429413675196946,0.380074347675287,0.297389214321201,0.208725855288362,0.104595581019713,0.00114926043432734,-0.0910998147798802,-0.161694158106041,-0.216027964792882,-0.235685536669423,-0.21838566620846,-0.169029682046992,-0.0920165362464972,0.0150650584704223,0.1362906549297,0.250761351317801,0.335462369491028,0.393652872647429,0.40085672387062,0.365250802283171,0.291167183527776,0.201693692522255,0.086151680176612,-0.0297439686729255,-0.143388535466892,-0.235598996750917,-0.31344469270951,-0.340588516513171,-0.326265414933239,-0.277256271078394,-0.217627510802164,-0.141167357802485,-0.0893539785704228,-0.0590642228586447,-0.0448964806298928,-0.024315830048161,-0.006216337473605,0.0242369629055229,0.0704127951471553,0.126310088040763,0.178117675605293,0.229412754170294,0.280956764548867,0.326696465682639,0.364865211911596,0.386490694282875,0.393418248408551,0.381920517690328,0.3560896529896,0.319177836823432,0.304531318105632,0.306391708085263,0.337221533834467,0.393745442181757,0.481859674329886,0.556643919073178,0.614232355300213,0.629664038055143,0.60453933187044,0.519985056178608,0.410500927620575,0.287883357159247,0.172794744976292,0.074212584016988,0.0232420842566756,0.0196184625349734,0.0617896555953252,0.148690158591124,0.26506008893265,0.383776527280628,0.473703753517827,0.535221521392373,0.552848415084324,0.529829152589498,0.482145339730548,0.444085884904532,0.416614841738389,0.415270222912697,0.447271837944093,0.501219970124877,0.554349166292044,0.600324259073344,0.625988852416725,0.619263340133844,0.581367775845096,0.523354009115499,0.437149360673766,0.345003164146862,0.263121100589505,0.211331234086835,0.185913337476656,0.210095936660403,0.269090311802872,0.359261872880886,0.451563533329655,0.54520436568682,0.618352568352452,0.659581926707446,0.644199353964253,0.592919562910591,0.510651532901874,0.4088392291433,0.298315811519767,0.212890575017366,0.140431023280706,0.0785706680472743,0.0284547153740945,0.00594631727357312,-0.0029491607932362,0.00544962043737846,0.0178328857382335,0.0400059517173855,0.0416090845291981
0.0120915505724782,-0.342544635801519,-0.582732167633075,-0.671662300427878,-0.59396226250428,-0.373588826735833,-0.0682810961320487,0.23435509113673,0.489104123788418,0.629635653731624,0.650797718660959,0.541930592513132,0.360189374917077,0.128902696939667,-0.0821275641680262,-0.258516505628388,-0.342178689440547,-0.356846341789667,-0.299226873581571,-0.207938753916902,-0.0935871720097233,-0.00441522689113034,0.0630262996983967,0.10165717791715,0.120684415042488,0.130351620031562,0.158205059820272,0.207019215826767,0.275302977651032,0.360418935021496,0.447743307400233,0.512890297722098,0.541135965564397,0.526419368639451,0.46679715997912,0.361077671491022,0.224759895235995,0.0866224074836991,-0.0384749226523335,-0.134653286995024,-0.183007640191318,-0.172243036968996,-0.114396833550824,-0.0203042166770416,0.0935694843261344,0.208906826725655,0.305064642442206,0.363310024872897,0.391376263295995,0.388683468622937,0.363826511648972,0.318740295011335,0.277997784021416,0.224324146651803,0.166933903621069,0.110141576318983,0.0536261834628677,-0.0096806704710406,-0.059387478838537,-0.087583486835208,-0.0912359484162037,-0.0644438565045893,-0.00157578079783421,0.0869151309501326,0.18368459957154,0.264672729263433,0.333789228564768,0.364479297524122,0.365763782826085,0.334805318733065,0.291877959685153,0.221340517332584,0.145612735309505,0.0581640700163378,-0.0205868065870746,-0.0988446747016725,-0.141327692007701,-0.157778057165349,-0.149703905650984,-0.141293286924678,-0.120904253793863,-0.125835850866289,-0.145687769451243,-0.172354933758752,-0.178791603294466,-0.177358459833982,-0.151944551899949,-0.0998530675110082,-0.0346715957652271,0.0253771220367495,0.0833168223316194,0.135842285905079,0.168534541543692,0.18577156235884,0.181853743204509,0.160526585432287,0.119727646126234,0.0742862854386699,0.0279986945841802,0.0126568047147889,0.0206277235037688,0.0644869159194367,0.136493338371476,0.24142806480866,0.333198233972731,0.410126655621483,0.44628875491543,0.44191750850503,0.376229601890292,0.285573122102083,0.180547667754213,0.0833761847498494,0.00135252198816705,-0.0317646571534394,-0.0168946210079844,0.0455283735132553,0.15370920143435,0.295189339938624,0.441335411138973,0.563846482054216,0.660621952072642,0.713282051375525,0.721953681743469,0.699161385244662,0.669960610034432,0.634583316945386,0.611544083710077,0.611336223291247,0.626276013378157,0.643217711123738,0.660671049143782,0.669607911441308,0.655790833260247,0.622933530883296,0.580734090729837,0.516631440796977,0.443520589535246,0.379924090147015,0.338016009314347,0.309176922114161,0.3190626403199,0.35835666560708,0.419474625275953,0.481969615966593,0.546052034929758,0.592886236353605,0.609739255373165,0.579353271073151,0.51858173645596,0.436372723853629,0.338576131537239,0.242936265673103,0.176149797808762,0.125701379201371,0.0879035572266811,0.0624829722122851,0.0559925208624461,0.0539429409083381,0.0594067874676909,0.0571237680432218,0.0574223766890895,0.0367786458388069
-0.00799262059568723,-0.393428204834866,-0.645113670056403,-0.732582349059034,-0.650254837684444,-0.432615489437669,-0.142499018092315,0.134348809287101,0.352112680764668,0.448143864479784,0.425168039856228,0.276765500963221,0.063254753578197,-0.185972724369476,-0.395102759504014,-0.552107656671115,-0.600205562967208,-0.568917415213578,-0.461340299714582,-0.325630941098854,-0.174527640456359,-0.0596333860211858,0.0222583536594054,0.0669485634077866,0.0861802087352407,0.0881296655571941,0.105786744365583,0.143435938548813,0.19837418198463,0.268558560709907,0.347095996627592,0.403262964403017,0.423651370710355,0.401126970567159,0.337955311053097,0.228908503504434,0.094480947826767,-0.0345658455730053,-0.140283611242817,-0.214008065838594,-0.239723169358962,-0.20806834722866,-0.139056197047777,-0.0446138492619648,0.0622148768985545,0.165304594078962,0.244093862246201,0.288787837625067,0.309297289177454,0.309126656235365,0.298623416045971,0.282790097645641,0.282706606099059,0.277612240569004,0.267404067920766,0.249746253516874,0.215381880849817,0.154388594392069,0.0860280921829892,0.0226004247578506,-0.0268276264704896,-0.0482750163521473,-0.0346236864089661,0.0113980312812867,0.0775946482239016,0.143670764063427,0.211919147318371,0.261124727641914,0.295960081137182,0.308798132288778,0.313370994255604,0.292218708847589,0.260547576835361,0.207377228081299,0.151679838566655,0.0859909585204483,0.0419258359853427,0.00783170700625144,-0.0118840279946027,-0.0417721291248385,-0.0675748009307796,-0.121200256596568,-0.184056961740234,-0.25131931627636,-0.290398873645866,-0.314757730233368,-0.30417684982818,-0.258829107960517,-0.193242006559168,-0.129240235110248,-0.0659704915939622,-0.0148288306296556,0.00436458667292614,-0.00188466165792055,-0.037483976330977,-0.0956803116854948,-0.174736450250083,-0.248947105087249,-0.312018536474524,-0.332868223038681,-0.319546324340382,-0.259535387251014,-0.167316174009947,-0.0408123949905827,0.0736798366061666,0.173551725441595,0.232274965151103,0.249366311392996,0.204363752540572,0.132895574010393,0.0462356174142808,-0.0314168217780429,-0.0918835034101032,-0.10147619701941,-0.0604030032833781,0.0301825003253705,0.162710263935151,0.324333491489708,0.486878649450101,0.62345818513611,0.731348923419654,0.797238152470722,0.820109054835853,0.808731830651106,0.781696758621568,0.739479136328269,0.699165844616691,0.672713203505504,0.657305199764617,0.647238679636059,0.643863758519703,0.641598227088704,0.624323764150306,0.59710705381932,0.567693929485151,0.522153819658326,0.464973546950341,0.419278668650042,0.387644371155736,0.358347321627824,0.353419016859472,0.37002953307292,0.394795584349793,0.418013493006086,0.442289032796695,0.456564295376499,0.448734449119996,0.408135900615315,0.347668434682864,0.276892756966256,0.196197297946786,0.124082035551206,0.0824877401387239,0.0584905870382939,0.049206834494352,0.0516340523567365,0.0653624383126973,0.0757185490522252,0.0838604279399748,0.074788998760201,0.0607090732410409,0.02849907166671
-0.10140920000175,-0.492771845550562,-0.73546002975382,-0.808262672981988,-0.716171595311244,-0.502598435526232,-0.233161443808002,0.0101717662313144,0.181850740429315,0.228146421860002,0.157779592322099,-0.0253004536996858,-0.261156649788678,-0.512300767074081,-0.703130586055338,-0.820308199833996,-0.820604567603055,-0.73450678545096,-0.574846934194609,-0.394570298807674,-0.21390338061891,-0.0782875403538934,0.0101720296270061,0.0506136042738831,0.0540771848885454,0.0327917812944462,0.0205134277449041,0.0292182240637862,0.0583960835341188,0.110527888637351,0.182208168473374,0.240919663972303,0.269737540526124,0.260415254451996,0.21267463396306,0.12082593548016,0.00434896075689195,-0.103628337186793,-0.186992444312289,-0.237884267668779,-0.246603480189947,-0.201364672812599,-0.128044877807236,-0.0353540178351505,0.0638283559659736,0.156022316722678,0.220119450052576,0.254755934372203,0.267442558835064,0.267191949062152,0.266182846035376,0.271980227433474,0.300295492086861,0.331642125292885,0.357453840738206,0.372881400152652,0.3606362204513,0.310427986237366,0.238230856043794,0.157690289426458,0.077161228883001,0.0178368387540714,-0.0143377547786751,-0.012067161902451,0.0182557534457239,0.0651918437973584,0.127266015470867,0.192798321620167,0.256570952532369,0.309700683064258,0.356644837576032,0.383031534083297,0.393144149428379,0.37687458054918,0.34853611098337,0.302730156513646,0.263492771244508,0.220096036356491,0.181072430136462,0.121971149404539,0.0581277292723289,-0.0351789350616198,-0.13433667240384,-0.238843241655715,-0.310783811019821,-0.362629544839754,-0.370504049611243,-0.336922605774063,-0.273602672961952,-0.205484853617062,-0.13447582008992,-0.0811955812625558,-0.068038043771276,-0.0920166254679416,-0.155726769104556,-0.251608386191513,-0.372216287480405,-0.484057147975761,-0.572251973017681,-0.606783317780483,-0.591714341498665,-0.515720841471084,-0.399321152300393,-0.247616500060069,-0.10575290765695,0.0200136048944144,0.102488131493949,0.14174263875171,0.120261419982854,0.0714783547851678,0.00768681322558121,-0.0459044525679317,-0.0792930290436243,-0.0629286113341276,0.00407917180776807,0.118053125633699,0.267946593320878,0.435378955401831,0.596599922019645,0.724334008057693,0.817524870171417,0.86631635074081,0.875137047267226,0.849025321077676,0.806965267039581,0.749844845952912,0.694667778077992,0.651926957979019,0.623036730009004,0.604295673182291,0.59525154151891,0.592434779940778,0.578435841586326,0.557552988388526,0.535074906145248,0.501710098022972,0.456078367833519,0.421838620107715,0.396829608116274,0.366967116250564,0.348908741261989,0.342541774758898,0.333483068707704,0.317153335442921,0.300279333895785,0.276812372189082,0.239603042730794,0.183192134849796,0.120436877585129,0.0620734602230938,0.00636829659221329,-0.032272320496303,-0.0377048385171612,-0.0252252311118601,-0.000255291811668279,0.0304708027731619,0.0610518324236306,0.0785809150979922,0.0837769358902993,0.0651956494920412,0.0379534756867392,-0.000324463586105338
-0.309838188381354,-0.677819152331381,-0.884895621287056,-0.921561364250163,-0.8051383383607,-0.589306413115071,-0.338168828871203,-0.130545631296636,-0.00975721350490602,-0.0173352844881445,-0.135562148318874,-0.351450549499412,-0.606278440289483,-0.854064524003118,-1.02160500494661,-1.09541372392428,-1.04733356450151,-0.90520548495763,-0.695037176384308,-0.473109633065594,-0.27017394103386,-0.122025801921289,-0.0410942200149751,-0.0222558866900306,-0.0554027654653728,-0.116147998666315,-0.173045742892267,-0.19983764591516,-0.195620331227239,-0.151914947255133,-0.0782646379284711,-0.00474057674498939,0.0455619441591341,0.0632699400127287,0.0423144309883017,-0.0183586374174809,-0.104859397671798,-0.185612459636478,-0.246115062126397,-0.27598225690496,-0.272952507626609,-0.221260887487365,-0.147146500153754,-0.0565344721265191,0.0352178131747593,0.118301663527822,0.170994182451324,0.196364452339306,0.198543815575394,0.19260873397767,0.192748887562567,0.207441789977469,0.249002704739107,0.303564835710296,0.357204559439215,0.401822013711779,0.416881815055412,0.390689106351747,0.33145924775149,0.249417213082911,0.152536615409783,0.0661311368405869,-0.00504998030262981,-0.0445896729904164,-0.0519073184946072,-0.0318288798695788,0.011376274020214,0.0763262793766891,0.15010214345027,0.225025779751063,0.298672427923276,0.359753851788755,0.404339894429292,0.422938965504734,0.424636496907463,0.407224624195427,0.386345540726545,0.349416179577653,0.310118722251913,0.24316622837485,0.160017636638464,0.0436710016564131,-0.0765049504980672,-0.206514527792189,-0.30424999021184,-0.377089146314387,-0.397638806087027,-0.375030947134574,-0.314251416023401,-0.24152515365378,-0.1599146565164,-0.101502025934338,-0.083945611672628,-0.111079422503917,-0.187500037538493,-0.309980014243087,-0.463429046196416,-0.611637771374909,-0.731481947656907,-0.790321362382029,-0.784914023770717,-0.702638889937787,-0.570293429748832,-0.397798244271016,-0.230220243556384,-0.0786316140133358,0.0259439092776843,0.086039695388129,0.0845215587109081,0.0515721746559414,0.00186603238961037,-0.0383465845120222,-0.0568806852343683,-0.0277665852168455,0.0539402268895802,0.179742558396284,0.336036125441932,0.498022184940023,0.647929279571989,0.754536025089712,0.820259905040408,0.83889313107405,0.822452310724878,0.771384025964803,0.708021829687214,0.634308783128334,0.567404496339501,0.513109704033477,0.478449177718286,0.458813812522067,0.450523017631295,0.449034272393631,0.439508435118462,0.423978315495646,0.406248688217392,0.382644786310938,0.352033582905897,0.334732150895212,0.323279410383272,0.304847988490603,0.289184158828504,0.272180354728958,0.241620842022904,0.19900181361479,0.150405576267373,0.0933619068895366,0.0306765644641897,-0.039701232455572,-0.105178811134847,-0.152487422987877,-0.180556220852854,-0.182768265092519,-0.150555807887701,-0.102150902061914,-0.0453576771935445,0.0072136746702805,0.0465232183561481,0.0645940135072742,0.0630529211660161,0.0350932147181793,-0.00232867457008136,-0.0424520704027504
-0.550342284126855,-0.866728090993702,-1.01331671155279,-0.99229778901995,-0.835909808021852,-0.605897045781677,-0.368820820312497,-0.197147752972825,-0.131430611737134,-0.196159849543799,-0.367253711976195,-0.617171547783228,-0.890664867226027,-1.13036458435589,-1.27184075830523,-1.29855683983407,-1.20025474572141,-1.00133722003662,-0.743815463751672,-0.48435062726801,-0.265359137279243,-0.115686510266902,-0.0545196115205872,-0.0711958083924368,-0.15180786634911,-0.258520260374128,-0.358310734887106,-0.415183517155138,-0.424298035528241,-0.376213329242504,-0.28813784000323,-0.187000413713484,-0.102116348358973,-0.0452836153275676,-0.0283644189695578,-0.0499024016249433,-0.102812234057605,-0.15888327925504,-0.204693515396907,-0.225589898523894,-0.221057408689333,-0.174323014170566,-0.104684441425847,-0.0179311868188063,0.0678307767590798,0.142361253973305,0.186129932230268,0.200544135092488,0.187292060145652,0.165431816414971,0.152180912339652,0.156281825353378,0.189707830990271,0.246856458770918,0.311286077828506,0.374646393003501,0.416331301638711,0.420928531733775,0.386960551791483,0.321273247116024,0.227010104742215,0.128840612018053,0.0307206044388708,-0.0445824493990676,-0.0919714660104,-0.108703753793305,-0.0992740802271209,-0.052905542381063,0.0137542640281357,0.0943399105867126,0.181802317097052,0.268186604913394,0.340901182977459,0.390434191860895,0.422093800303561,0.43619446530863,0.440345884751307,0.421466448797606,0.396028356373833,0.338667482052449,0.253574161710208,0.132553397770043,0.0061362311514295,-0.134304256379406,-0.244894020308374,-0.324818163130149,-0.348936703376854,-0.329866658399157,-0.267052864283212,-0.186265836014954,-0.0927902686927276,-0.0247429682733675,0.00515434173184491,-0.0158403459200301,-0.0961415603638412,-0.236156201722155,-0.414475958347114,-0.595071931575783,-0.748018353518953,-0.83597871245784,-0.849645920565432,-0.775580353508801,-0.643877544545059,-0.465555891627427,-0.287565096659761,-0.124663383468245,-0.0121902674303836,0.0550185953912432,0.0580127458357762,0.0264559520224478,-0.0213768036682298,-0.0578912376771326,-0.0705332472562139,-0.0349535249863987,0.0540601757806439,0.181125177839662,0.331982045419691,0.478732697050317,0.607734396369778,0.685855154058396,0.719384582697599,0.704929829075682,0.660613865104265,0.583900842782642,0.502126974059857,0.41988214705348,0.353774776437281,0.304163420394576,0.283059254072347,0.281337426418217,0.289666661438255,0.300478421095666,0.303271198068305,0.297484464107923,0.285948158307466,0.271413568842279,0.257353143241132,0.256356249618181,0.25680444323552,0.252065140019864,0.243783324417694,0.222035174671718,0.179660684868449,0.123272570811956,0.0531926408742841,-0.0283155344604063,-0.110019039622124,-0.19044685199791,-0.259221425899644,-0.297472191400251,-0.302652080787712,-0.276087159365867,-0.217367903893194,-0.14244875721826,-0.0667083584479265,-0.00448785476832754,0.0340011432735062,0.0467780835955596,0.0309793139406304,-0.0103539161685533,-0.0611901697810168,-0.10667310705059
-0.853701723633256,-1.09535025789563,-1.15640503464803,-1.05283721937653,-0.83421656920869,-0.57265100137381,-0.338732377011366,-0.199158680908346,-0.190506074207921,-0.316793496897623,-0.546047741113836,-0.832260764782729,-1.12167647339525,-1.34497738097316,-1.45082393604365,-1.41925705983793,-1.25923272894999,-0.9946672133538,-0.685704540353617,-0.387005773396689,-0.1554692446212,-0.014894776124132,0.0135443732038997,-0.0510406012230521,-0.188542052543931,-0.345392544070734,-0.485251806973947,-0.565795307301787,-0.579870617850985,-0.519603683868682,-0.410404061930433,-0.277908012837169,-0.156740116446996,-0.0621363159871529,-0.013936074156437,-0.00910114550263606,-0.0453342678491128,-0.0964707055183442,-0.14900637564522,-0.180890209075744,-0.189712003695858,-0.157853532992259,-0.0992674107920265,-0.0183532205158277,0.0635229312807205,0.134164792905781,0.172685044869549,0.180459616917822,0.154777582769025,0.116911452093545,0.0839559896205263,0.0697063579478304,0.0824914692646612,0.126143219651816,0.184023330074724,0.252679191195254,0.311637155189216,0.345162729155408,0.344325269953018,0.312004418444978,0.242659628635788,0.156569166074938,0.0569817731297264,-0.0346635905840781,-0.110880551723542,-0.162044569912123,-0.189468905938949,-0.174710926650906,-0.130152293886489,-0.0590532589352591,0.0312344662883613,0.131785001608036,0.227246409735383,0.305799172727751,0.369638175830655,0.415766891480688,0.449949209911404,0.455212164624453,0.448882490707153,0.405663866191684,0.327877342908039,0.209965414263597,0.085658666343489,-0.0539157969166037,-0.163088038656724,-0.236507520060057,-0.249578821842324,-0.219928872448857,-0.143860917400616,-0.0492615201140302,0.0581413993444814,0.13681812394212,0.180010861509238,0.16831802673101,0.0920698846907663,-0.0516605498653077,-0.238351463957487,-0.436444901497301,-0.609469723103123,-0.718618975795185,-0.751412140620665,-0.692061897853096,-0.568739558836945,-0.397003519374966,-0.221916414059867,-0.0625538339429767,0.0436862513139166,0.0988490366719668,0.0881527458272526,0.0401621726377075,-0.0197425716300418,-0.0672199549817936,-0.0831925094198195,-0.0488747532816303,0.0397811541039899,0.159326469534432,0.3001905453063,0.428587388211463,0.534464972953427,0.583471287521869,0.585127035000373,0.53579850929927,0.459699745565319,0.355305910454801,0.254832724082854,0.166358580811966,0.106106021553056,0.0710748207494216,0.0733826746709419,0.100229100367801,0.136743740949459,0.171029030525406,0.194368244484666,0.204516308899482,0.201826587503122,0.193613612731127,0.189089747020952,0.195915721390099,0.200408762399985,0.204256013776647,0.20254056061901,0.180837017160635,0.134776902862116,0.0751664682897349,-0.00621006644092644,-0.100404172232643,-0.191313128133023,-0.272990619697871,-0.339767699986981,-0.364856658151132,-0.348980558513921,-0.298447215144198,-0.221776096975694,-0.129050529745909,-0.0443235414394834,0.0190695482642886,0.0510629552407525,0.0554798996570026,0.0240932140211365,-0.0308157695888327,-0.093769562013979,-0.145547177016972
-1.20578599114542,-1.36441302975556,-1.32818399534607,-1.12745392704662,-0.829906942073075,-0.520467947177895,-0.276766603227732,-0.162255103363663,-0.20741271121184,-0.396178430319381,-0.688341506070848,-1.01791657893379,-1.33007469260442,-1.54433604903757,-1.62066641280275,-1.53593802415203,-1.31744177012132,-0.991494518466078,-0.637003717820487,-0.3095975972123,-0.0790116160867311,0.035026137513521,0.0154073341869889,-0.109814760739973,-0.311410005584881,-0.522219479211393,-0.700834061203474,-0.804368822799156,-0.82138137238676,-0.74870120049005,-0.616843420360888,-0.453161292410023,-0.294754207082507,-0.164596828581055,-0.0870943848003295,-0.0609085429143548,-0.0864179257975123,-0.139059513126417,-0.202994785858193,-0.24942026505877,-0.272143467457656,-0.254586781938649,-0.207740230359108,-0.133244189581868,-0.0568707665405041,0.00703238985128802,0.0397024549161791,0.0422601055613856,0.00671696809599893,-0.0452357457536647,-0.0947852663918166,-0.126962741270014,-0.133531149816364,-0.104488957282799,-0.0515238389216864,0.0221062436916443,0.098971327307628,0.16298945746376,0.203089212186338,0.214618869062884,0.186719660732537,0.1319074895524,0.0510891927542468,-0.0409070035335725,-0.13376304276695,-0.214666451119171,-0.278670637805386,-0.304039689494086,-0.295470250054693,-0.254120288008666,-0.182611042363123,-0.0913094601724437,0.00880924410912337,0.104659651939316,0.197515410476533,0.277433690948529,0.348163962203603,0.385330076471486,0.403278593300672,0.377359183593599,0.311167280194655,0.200163641866781,0.080443611925644,-0.0511393256499101,-0.150912615820379,-0.211204233475331,-0.209597414210802,-0.163581439440071,-0.0731599121821821,0.0348757668870572,0.154852275943173,0.246783659892103,0.304452822849423,0.307089325886775,0.243292433956236,0.108388133818971,-0.0717795430540015,-0.272376215865786,-0.452726978784542,-0.575251270274144,-0.624391998504088,-0.585297702783408,-0.477787120972667,-0.324378164418629,-0.164818860431825,-0.0238927649533901,0.0636753502936232,0.0937486280279602,0.0608175127740967,-0.00958722589917429,-0.0845937658629999,-0.145682583362765,-0.168816515628927,-0.143655213501304,-0.0670751293258356,0.0316106518641161,0.149118316400834,0.248494308568772,0.322153434631671,0.337714416203596,0.305326155628428,0.219829565068628,0.111845382952128,-0.014565886593111,-0.125352451951205,-0.209271151566774,-0.249339276033109,-0.252237579486971,-0.212226342436771,-0.144993414579984,-0.067985397625831,0.000491640642969328,0.0520491449828287,0.0843188283505494,0.0942342224267525,0.0903280110627347,0.0894881013581384,0.0946867280097106,0.095149225632094,0.100749481241271,0.104980462188798,0.0880123202507911,0.049321960526792,0.000100450890681229,-0.0752317117855141,-0.166989643923125,-0.254544221312033,-0.329443020378253,-0.390675799101369,-0.405631421573986,-0.375435644980831,-0.309830443144516,-0.224674439706017,-0.125258255928387,-0.0420219956789343,0.0130014219765838,0.0286991655903232,0.0159949680012806,-0.0353147176204857,-0.10602012345273,-0.181466409644693,-0.238797605062162
-1.53484736960464,-1.60509278384384,-1.4653908630857,-1.15824839381146,-0.770585489860647,-0.399730408448922,-0.132343851522972,-0.0292724352771337,-0.116839943780869,-0.361381133698485,-0.716455006198945,-1.09562843716329,-1.4389821602393,-1.65523483975358,-1.71219020203826,-1.58322768746715,-1.30939977043857,-0.924709596943306,-0.526870228257867,-0.175010695382122,0.0516094256087197,0.130653539397311,0.0528497693005507,-0.140710863928726,-0.408501898892634,-0.673271206264159,-0.883005785979307,-0.994225621299919,-0.995730314437806,-0.893478024894663,-0.720782598487163,-0.511972302533736,-0.308970315735584,-0.143180180183849,-0.0383671186908411,-0.00068431818195545,-0.0281274224595759,-0.09619214984762,-0.18102483852418,-0.252899757986451,-0.293183246232428,-0.287446455043696,-0.243562011506893,-0.166482362308048,-0.082454288421298,-0.0127813024071058,0.0218668115922739,0.0196530391749423,-0.0285165948716917,-0.1010008891609,-0.177339585479179,-0.236857666804845,-0.268841238047517,-0.258705203864333,-0.215326301993673,-0.140610747151047,-0.0500885242113292,0.0405718674795106,0.11761722500742,0.173648228109015,0.192491520485828,0.178103720944199,0.126609796854555,0.0473704186057869,-0.0514990045799301,-0.155494432987093,-0.253187240156176,-0.319102530820533,-0.353363041677307,-0.352195948405185,-0.312969846164303,-0.248449513063083,-0.164230526377396,-0.0686592525559334,0.0375424854844079,0.139924927296248,0.242080163747933,0.313465588234088,0.359846275841866,0.356517080681182,0.306842731634672,0.205542440207246,0.0883515267881696,-0.0388373381243886,-0.131657646507498,-0.1812334338092,-0.166319053778445,-0.102615675430463,0.00408942424459783,0.124664668956503,0.253090792740239,0.35317584322205,0.418008862352143,0.427919570789351,0.372625596253339,0.249894842346268,0.0825126361638743,-0.109306604611939,-0.286535233972373,-0.411898846758776,-0.472196690961624,-0.451312950065847,-0.364030262972713,-0.23481530016253,-0.102030198455203,0.00580913986505037,0.0578944504784495,0.0470776572531818,-0.0223538725050005,-0.12643995216139,-0.223651259144524,-0.303089102632038,-0.337068165161208,-0.325269622814863,-0.265014198219343,-0.191862518253125,-0.103757042541261,-0.0382099967845061,0.000536538964465813,-0.0154222436339025,-0.0745104007135075,-0.17932242867017,-0.297814446946828,-0.419834686892599,-0.515869013903663,-0.572817436823097,-0.57774814998178,-0.538413509217359,-0.457616839004944,-0.351182641195844,-0.237256956835493,-0.139074825858271,-0.066121216008869,-0.021037552610692,-0.00571868078082492,-0.013890740738659,-0.0203342338988044,-0.0236774057159416,-0.0293316223319645,-0.0260603724594337,-0.0190235456289824,-0.0310092020022488,-0.060008368485068,-0.0950556996952381,-0.1540539535016,-0.227095115714604,-0.294288438909894,-0.347276490832407,-0.391235938522456,-0.39166903240047,-0.351405053214241,-0.280181258403073,-0.196822558360712,-0.101749006995471,-0.0279443427209909,0.014536738956578,0.0158266580897023,-0.00884043365352188,-0.0709252698135924,-0.148462230579574,-0.227542348250883,-0.287278711832835
-1.77957805844226,-1.76706517605905,-1.53052513902773,-1.12169457802093,-0.64446201788478,-0.208673850318648,0.0869876360105636,0.185154000494363,0.061659672086183,-0.237599440792474,-0.656795831421572,-1.08942535222218,-1.46746056567153,-1.6924865726797,-1.73489993585515,-1.56925573384771,-1.24804786284147,-0.816410104821335,-0.383597884515314,-0.0135196294884322,0.209010767897453,0.256463016052649,0.128557415206942,-0.123770262816164,-0.448781919757741,-0.761324315245439,-0.995588712089764,-1.10915365150303,-1.08998314423431,-0.954031569890759,-0.734575751568339,-0.478363354699739,-0.231552646966692,-0.0372587140396516,0.0847823700376325,0.117158286528274,0.0707925027366263,-0.0286150504495659,-0.14470814734613,-0.249459559405416,-0.307344508768879,-0.309246411673892,-0.259641461083034,-0.16879008226371,-0.0626108603483846,0.0258561820602955,0.0746781961833626,0.0768464942081072,0.0229470687004288,-0.066729877961909,-0.167435209189443,-0.252684816578101,-0.307956744135054,-0.317296312304855,-0.284274784253132,-0.210675604551103,-0.11099600650573,-0.000976683748301667,0.107274717750981,0.203334277845302,0.266262561287344,0.29262215298997,0.275797096196924,0.218959636801533,0.126267832713728,0.014194407174255,-0.103214951229704,-0.201161230623632,-0.27780784368635,-0.322813752352815,-0.32947107701101,-0.308549735826575,-0.258185949857313,-0.17815021089132,-0.0734194346376122,0.0386002181798541,0.161722408371293,0.261309887748883,0.331629570471589,0.350934512339364,0.321866768255312,0.234980540424411,0.122660023605404,-0.000396705533979588,-0.0903285731860636,-0.136861068486968,-0.118032708576942,-0.0435499903163616,0.0738613931356255,0.202964595214327,0.336532247426902,0.444411797079515,0.513034587817482,0.528409668416704,0.482697031675594,0.378113295440073,0.231940114632916,0.063586433821685,-0.0927180787644881,-0.203235953192379,-0.259731485966604,-0.246921987486954,-0.175777802480871,-0.0743072213057049,0.0225416607583897,0.0858811789482712,0.0913527986457429,0.0311613047043235,-0.0782310533008473,-0.213613630002649,-0.330705844989323,-0.42365007574305,-0.462799965277136,-0.457061946576195,-0.407483703897464,-0.349844596436017,-0.281683449333199,-0.23968445490443,-0.228564690425895,-0.269090161186097,-0.348748854611342,-0.465506909812591,-0.587848454241662,-0.695703192671494,-0.764706294223063,-0.784502357062981,-0.746626599402802,-0.66030305892897,-0.538377846581569,-0.397272862538354,-0.253281363003576,-0.133079927363691,-0.0480785411012917,-0.00109639773101266,0.00766046703334938,-0.016044920727668,-0.041959354630001,-0.0659374408684518,-0.0859936912693641,-0.0916287543003266,-0.0854780718115297,-0.0885740980784492,-0.0998631734328984,-0.114174732785366,-0.146630057690117,-0.192103015287847,-0.235112389578634,-0.267931712794583,-0.295713585502807,-0.287903865968983,-0.24689622512454,-0.18128369879684,-0.109430066536619,-0.029856295754926,0.0253904863097009,0.0508782005606246,0.0379754583640117,0.00385740025382638,-0.0642810009111892,-0.143628296790742,-0.225351135212435,-0.289646008958185
-1.89403680532423,-1.8126398798298,-1.49184210364373,-0.996201835620422,-0.438120935594744,0.0536918743142161,0.377095184662926,0.470754646552534,0.314342731901661,-0.0410659309047849,-0.523462394040067,-1.01379475165567,-1.43058203821725,-1.6726219002324,-1.70874665478372,-1.52006016615857,-1.16781734757928,-0.708236479207853,-0.257416815711,0.115116348394486,0.323447458763833,0.33918417871753,0.166380276645362,-0.134411561353892,-0.504232200299961,-0.851817985135823,-1.10296026716648,-1.21227236005832,-1.1686085466607,-0.996341734258925,-0.731182199037747,-0.43175057538031,-0.148967249923737,0.062906048635995,0.188268321087734,0.204269086811168,0.130011020505444,-0.00658860009474834,-0.157590815211896,-0.293769182174487,-0.370416514388227,-0.378408312161713,-0.323069713790303,-0.216552493220977,-0.0897026537833779,0.0203725525017353,0.0873934781451971,0.102148033596691,0.0515068553407389,-0.0419646801754762,-0.154346723007733,-0.255646898219599,-0.328280833192659,-0.35433663259669,-0.330884630061669,-0.261217155936073,-0.156453615432811,-0.0316555286605089,0.102890727151091,0.230727651862221,0.331936483770564,0.397461543580148,0.417197043183535,0.390820054242481,0.318329574423504,0.214738127125101,0.0918048682027866,-0.0260348184517056,-0.138075621152125,-0.226691379551796,-0.281568007394848,-0.30738334140327,-0.296322552343042,-0.240793490341485,-0.147700351133999,-0.0362831142277514,0.0953526931960397,0.210793799625508,0.297190124473189,0.333452884095081,0.321230589760679,0.2476807756025,0.141096818837581,0.0205838295208328,-0.0725539954720397,-0.124763517844667,-0.113676191394389,-0.0430231149858164,0.0685627843677629,0.192611379161627,0.320130217980429,0.426339261377955,0.491727648144924,0.5109684311622,0.4778923099303,0.396144054782527,0.280500835274625,0.149045189440576,0.0311785327462151,-0.0473698302808211,-0.0789087564652265,-0.0539545392500866,0.0190165233766951,0.104655264860972,0.177976484123485,0.204822834407704,0.171838850852065,0.0709331312443391,-0.0657042200836806,-0.223704513410738,-0.353160862400808,-0.454457328846457,-0.49515043899038,-0.496488357287473,-0.453964018568713,-0.403101566976767,-0.344869923045497,-0.315213227774358,-0.31783371615324,-0.373738835350862,-0.471426523413526,-0.599354647899705,-0.728105152704373,-0.828077830132115,-0.87759876012539,-0.865767071534822,-0.793177306151649,-0.67004763105166,-0.520661709785804,-0.360167791280542,-0.208051732854716,-0.0892181932902001,-0.0170293821497635,0.00943255092261822,-0.00901285166113254,-0.0628710952798474,-0.118397532508636,-0.166047958361773,-0.199714746347555,-0.211133894467296,-0.200048807107515,-0.187548427843163,-0.175779873909604,-0.165211950429612,-0.167424515290129,-0.18447365581558,-0.204200253695404,-0.218205651384326,-0.229424433765313,-0.21355107588762,-0.170054122645821,-0.105648556643801,-0.0396394781236415,0.0282884468860017,0.0718477262114489,0.0865652375725989,0.0650971003811308,0.0256046947869856,-0.0408387940640784,-0.116449410534596,-0.193645131019303,-0.257606824605686
-1.8949895687321,-1.76506403020575,-1.38374892302301,-0.823549634280056,-0.204712000731289,0.330699602960368,0.676798754749879,0.767412876757439,0.58347781963267,0.180459029922443,-0.355022890419358,-0.896554520141082,-1.34957564893475,-1.61357704391559,-1.6536997687971,-1.45829261269962,-1.09284215732756,-0.622046882663959,-0.163961991620772,0.206961672432522,0.404612582271173,0.400768739860444,0.199054866514388,-0.131334300536273,-0.52972643412409,-0.898092538021183,-1.15992184713925,-1.26225357542843,-1.1983239658337,-0.995344729626151,-0.693544701666974,-0.357389873299325,-0.046079574512903,0.178619815553704,0.303721154271114,0.30310368045155,0.201615896254516,0.0301907827359929,-0.148796513553772,-0.306682217210414,-0.392621979867326,-0.399130863558665,-0.330060559849665,-0.207530005588836,-0.0636670062606567,0.0617958652188972,0.143081049182035,0.166108678533317,0.119291780733093,0.026074444684833,-0.0900841024451352,-0.200862438257135,-0.284155521895681,-0.32228839492604,-0.307857137250762,-0.2455217083644,-0.14071067356943,-0.010583311821716,0.137053164343121,0.283398208162543,0.410709280688089,0.505739222716127,0.556982294499538,0.564273761185653,0.520689120622565,0.438307518380604,0.322784655426504,0.199899666229647,0.0632295897490271,-0.0624091923584606,-0.165665388012788,-0.239047060269412,-0.274218142095932,-0.252466394245547,-0.182242586832401,-0.0780607543165752,0.0531915445264628,0.179224109129999,0.278042025138227,0.329281427240677,0.328817459438072,0.267272202043898,0.164991332238416,0.0454596203622776,-0.0546149238038272,-0.117856457824783,-0.126115736246151,-0.0757625877632843,0.0122904189881026,0.115825223472535,0.22537160301036,0.321446413620228,0.380434925954306,0.400697358806722,0.376749927861398,0.311671172901487,0.220596533708045,0.120750166385757,0.0393707788090146,-0.00557702242141826,-0.00633730823137923,0.038516122571663,0.119692883532052,0.196867542355746,0.25255106991924,0.250888059766621,0.187932568109413,0.060483905990535,-0.0899311706977285,-0.254852447256768,-0.384322394260416,-0.480283145319006,-0.51446798804099,-0.514291265597304,-0.472527756748472,-0.421499253239751,-0.369935414282021,-0.347173581539452,-0.358981632176975,-0.422585801212279,-0.52910728408462,-0.656369008211846,-0.782222330217449,-0.867769583279347,-0.896555283117761,-0.854942018302468,-0.75313523108447,-0.599558082005746,-0.429915087321506,-0.258404268331228,-0.110365686122662,-0.00605952766835804,0.0399662018699218,0.0353122591653378,-0.0175868289736489,-0.102999276543794,-0.18618015669085,-0.254244987866278,-0.297112062619497,-0.309461173033431,-0.288228894988047,-0.254096987005874,-0.210693437459432,-0.168324964043299,-0.133194467219014,-0.118257955643689,-0.114310145663137,-0.115319237059511,-0.117145407053763,-0.104377143433185,-0.0694589031949115,-0.0174025751514538,0.0363531214835167,0.0892689495627626,0.122580086134933,0.132198468495729,0.111188591273074,0.0752964349586979,0.0170385179341299,-0.0502000108371745,-0.121013174345905,-0.182758568017551
-1.77122547103312,-1.61433031323872,-1.19595242659484,-0.59533800306961,0.0607863894483486,0.621963956734072,0.981263489371231,1.06880544971157,0.866325561502732,0.429389953123385,-0.141999871307155,-0.721192860634659,-1.2036225426555,-1.49165487760642,-1.54476315177547,-1.35570876530392,-0.990278179478879,-0.519525401892339,-0.0605293062030889,0.309934608421607,0.502596020990558,0.491122831402481,0.278030665777145,-0.0617031126356512,-0.469262296260721,-0.841358480467396,-1.10245033434125,-1.19250496064062,-1.1092844748788,-0.880053192507515,-0.550062550485968,-0.188626605507257,0.136494824110207,0.360876800887365,0.471280288174536,0.442487894922064,0.305972759350824,0.0964838263477663,-0.112182387542771,-0.291266822745638,-0.384693457848748,-0.387425514303177,-0.30032347807799,-0.157256792722148,0.0120630049582423,0.162096386337776,0.26733311308637,0.304902620339662,0.268713833457278,0.177717610240949,0.0567056112868768,-0.0663958635942744,-0.1638102786473,-0.221005062367702,-0.224840199023758,-0.180568497989022,-0.0896362585498739,0.0280032068485018,0.168188315539306,0.312370969464,0.447117725256823,0.556316758471228,0.631234435748442,0.67023827342333,0.659794865842816,0.607280027531719,0.512892520549428,0.401616267782239,0.261864722356365,0.121921362825759,-0.00926860659309172,-0.113249863649529,-0.184208507960478,-0.194540865559891,-0.153210817224471,-0.0661657806846314,0.0513656472182215,0.17442687495813,0.275349225992461,0.335596792005321,0.344054496280871,0.295294362510166,0.202171021069182,0.0868678685786291,-0.0175677963660553,-0.0907910322044174,-0.118086086710109,-0.0919764690647818,-0.0296588017226383,0.0499496264349988,0.137756909116464,0.216172105936233,0.262321788457058,0.27476841287009,0.252007646583512,0.196940019010345,0.12727638829838,0.0577992021000307,0.0135114717409376,0.00395184494046254,0.0345931392071844,0.101026065649252,0.191115919747315,0.264295764012229,0.306586729859171,0.284986849844907,0.199934125016799,0.057102265621702,-0.100245569581264,-0.262162992272618,-0.383021427970609,-0.461462773903418,-0.477499735284824,-0.459798270834794,-0.404884186868533,-0.340422065132123,-0.284528116708917,-0.259541934351829,-0.271953276185909,-0.333924321585486,-0.437179948204532,-0.552790027461736,-0.664424872457952,-0.730037715536118,-0.737451064345034,-0.672812054032913,-0.552084958652668,-0.384339808208646,-0.210518425876028,-0.0445632075058264,0.0829577844214785,0.158006607390542,0.168654250895078,0.125478273249952,0.0345484579618337,-0.0835963421435171,-0.195581335757465,-0.28645492124131,-0.339956796686599,-0.355764425655953,-0.326499170256592,-0.273556904875695,-0.203087243448085,-0.135428996329504,-0.071026803889479,-0.0310367138922548,-0.00885910975560955,-0.000579338362843873,0.00261509848879713,0.00838012082736013,0.0276653598940613,0.0600840181796941,0.0951268799735902,0.131925094594948,0.157600219406647,0.168908288418059,0.158435773421249,0.136380458453579,0.0923452012469773,0.0366155796297558,-0.0264352856967177,-0.0874644834910855
-1.62029256103899,-1.46423673133565,-1.03620572061645,-0.424598856681764,0.24299694269929,0.808852788990284,1.16846864463966,1.24566797028738,1.02589993944552,0.562641544913535,-0.0317789596507976,-0.635475061921954,-1.13573006906729,-1.44029293510151,-1.50387743892423,-1.32647748602199,-0.971587292470455,-0.516525284611651,-0.070938855839915,0.285041134661865,0.464523490604429,0.445737457166459,0.232362370971512,-0.104037354419961,-0.505513069423008,-0.867460025590622,-1.12155939881889,-1.20436958789839,-1.11420513630763,-0.876902342384646,-0.542651591152205,-0.181397266572204,0.134347967377631,0.340234621653288,0.420791938341201,0.357439894132396,0.186476823834804,-0.0534543027880349,-0.283943751213724,-0.472718593544975,-0.567672985154509,-0.565144101620902,-0.465867875970792,-0.308759798156013,-0.123876532941201,0.0441667407339515,0.171688319824746,0.229929898824746,0.216155408890225,0.142958575136681,0.0352599882248884,-0.0832146236729751,-0.180343453860517,-0.246704489518161,-0.259845837668284,-0.229485543106989,-0.150438383677957,-0.0461461318375402,0.0856921688511215,0.221585347960374,0.356498994550099,0.470274773938387,0.560658862882142,0.62161518247156,0.641000107575334,0.620115066549235,0.556161326486817,0.466710035886833,0.34077012856712,0.202260606225651,0.0596019577234052,-0.0608572107936296,-0.150364066306236,-0.181281328706071,-0.158811802233347,-0.0853941310599759,0.0165454532260659,0.126023495758776,0.217454686348179,0.27559208553528,0.286717084551682,0.249430146946339,0.170139449740305,0.0660567551703198,-0.0385273179170611,-0.120381635204783,-0.168880157697392,-0.171153560529414,-0.139420886197462,-0.084698368223354,-0.0180764824488858,0.0451871237298686,0.0816257711006192,0.0909091119061355,0.0718421187789083,0.0283796274815757,-0.0188524349546103,-0.0583841509876271,-0.0692996574107922,-0.047776299273052,0.00879734824484811,0.0912211634374646,0.186892112788202,0.256711019988734,0.290238590787538,0.258913046954127,0.165435081397017,0.0232958378428511,-0.124906044540607,-0.268913647240616,-0.368327537344555,-0.418181107088816,-0.407640884360357,-0.364942033883441,-0.288158441759911,-0.199899785146135,-0.125912537153113,-0.0840474134160069,-0.0826658012152585,-0.132686456337056,-0.229424042476593,-0.340639566121805,-0.449657437795058,-0.513152105718482,-0.518569072081882,-0.450381736119338,-0.324900015864669,-0.157438266527963,0.0103468429031369,0.161784956235624,0.265353243203871,0.307949295572538,0.285385400335683,0.207767039087075,0.0847237146876331,-0.0626503227073893,-0.199099265763536,-0.310053221971621,-0.37080229408334,-0.383663350345636,-0.337285750915151,-0.256354547275648,-0.151137324366824,-0.0537851896484785,0.0377431897618031,0.0968990986347617,0.129418705010178,0.138574558705741,0.138422880679322,0.13111024841062,0.130104058066106,0.13939601013678,0.152467434829934,0.170732857748159,0.18653040936276,0.197181344336468,0.193451279888953,0.182559941410825,0.151904914690267,0.108960300301527,0.0547882555389984,-0.000450759399491169
-1.50334919889278,-1.36941204522982,-0.954527947154713,-0.354299223795254,0.303977645371156,0.861776277407171,1.21967229571753,1.29453960638959,1.07603460566556,0.613552567758562,0.0227942154755876,-0.581284911035954,-1.08186420585939,-1.39098287870705,-1.45985721299906,-1.29021627509408,-0.944918236655404,-0.504401777016381,-0.0735643876873352,0.263828176207836,0.424134037828436,0.394203466764877,0.179398297708634,-0.152043879068463,-0.540358663609358,-0.8845054547423,-1.12781062588425,-1.20496416135788,-1.11628571805253,-0.884550875362228,-0.563841891156358,-0.218927760522909,0.0738857317690433,0.256717451324026,0.308137806528398,0.220174494047067,0.0268108039946871,-0.228213321244648,-0.470475158875187,-0.661226909636261,-0.757793250208076,-0.751811544290625,-0.647752452348627,-0.483700318440661,-0.293014986514884,-0.112820461409301,0.0296826041704047,0.104943741295923,0.11058675086982,0.0574983329027482,-0.0362898541723212,-0.147844086786895,-0.244761585561551,-0.318826020724918,-0.344564231856208,-0.331064523515782,-0.266947333520772,-0.1767994184621,-0.0562591790711004,0.0693415896322952,0.200890013831732,0.313504157955701,0.409916359386901,0.482213985474078,0.52106657026477,0.525363796398747,0.4906327954314,0.430890823744799,0.333725601371396,0.218502575311489,0.0879214409358997,-0.0264434037689569,-0.118356318107381,-0.159236885016671,-0.152587216110962,-0.094641715193145,-0.0142302578091682,0.0748849437604698,0.149721946212674,0.198426587327788,0.205980371498619,0.177508173743355,0.112055328584832,0.0214723023027456,-0.0766412480433983,-0.15897842499046,-0.220786119586017,-0.245987717916417,-0.240303354826246,-0.209737292273162,-0.167266562971282,-0.125820449712671,-0.103754222023807,-0.104079699937631,-0.127855315709205,-0.168470685553942,-0.203186432440289,-0.227694222246876,-0.222057722486253,-0.183049269981119,-0.110864614445263,-0.0174072652614592,0.0856468975575023,0.162565659183017,0.20111550291662,0.175018550004842,0.0886300648215225,-0.0386022172288795,-0.167043203265547,-0.285963786524697,-0.355555888615432,-0.371457266563768,-0.330566322291866,-0.261595779563624,-0.16117106026007,-0.0519511142781,0.0392817913317315,0.0957768877397873,0.111888989209495,0.0756935458085853,-0.0107811818075668,-0.116413119526112,-0.221052264072645,-0.286046111124514,-0.297247581197329,-0.235171223974088,-0.114702040119302,0.0429477965106638,0.198180508479054,0.330626744368752,0.407764777604043,0.417316221150257,0.363627670539728,0.255249043085779,0.108069114722556,-0.059197186620757,-0.207887641426422,-0.328535176838603,-0.387874259464271,-0.393320614932882,-0.331208001756189,-0.232421193291782,-0.107388454052597,0.0041331664555987,0.104709607396105,0.169051337805202,0.203190449111134,0.209866927704526,0.201761292052978,0.182747019842063,0.164637764789567,0.156201594566559,0.153016782094618,0.162400047321599,0.175567366101329,0.187977066631284,0.18902456308656,0.186766980769461,0.166312815067614,0.134161539201866,0.0933478114850676,0.0523671318432967
-1.4656742622133,-1.36976280516009,-0.988720028965243,-0.416012580383008,0.218248533292556,0.765697488630688,1.12483881421332,1.2124655681282,1.01641061759993,0.582255353932535,0.0188392014782956,-0.563457666692066,-1.04955439287127,-1.35456189974431,-1.42483060733248,-1.26126948423452,-0.921825336368227,-0.490492150622658,-0.063950999539565,0.26833779227247,0.42715907718335,0.400393538168377,0.197436506813678,-0.121363363459388,-0.493380278350198,-0.822422061560264,-1.05892113106803,-1.13678454280865,-1.058812396003,-0.842229730691605,-0.545920862650318,-0.226948649097454,0.034660256611619,0.192429733234292,0.216461166546649,0.110744563005442,-0.0962408936218225,-0.354870725147144,-0.599101899059299,-0.785007253075905,-0.877338042952926,-0.86577000310041,-0.756899171459053,-0.588888871824884,-0.39359114991734,-0.207060411077181,-0.0553766409056179,0.0284993292273285,0.0468716449732471,0.00502607113489657,-0.0794963439205811,-0.186197036308917,-0.280997049554391,-0.358675099079844,-0.392904258940961,-0.392325142380112,-0.341675129680339,-0.267644366170687,-0.164904971111814,-0.0558150618587258,0.0630251098069504,0.163716724790834,0.257039638148426,0.333365932541603,0.385898033126921,0.41182486240293,0.407839109255772,0.380375647921169,0.317254258600201,0.232636503647826,0.125361288483091,0.0260798579812274,-0.0611544517795457,-0.105524165634197,-0.112490760718065,-0.0723229401138827,-0.0140918038715961,0.0577216726069654,0.117573460358956,0.160578280240072,0.168598649278549,0.150248365308323,0.0967893935691378,0.0185473419017897,-0.0720525187801877,-0.151489708980535,-0.219078523158082,-0.258847689371233,-0.269064484924246,-0.256414824381908,-0.234407157960441,-0.214961345670414,-0.207735105333892,-0.222747597655541,-0.257907202042136,-0.303813866816833,-0.336786281797646,-0.357965885081575,-0.346542201313536,-0.29617978251163,-0.214843179738782,-0.112834842781736,-0.00456582415681943,0.0817191486403892,0.123638887686539,0.106711694877515,0.0293861854478095,-0.0794078789279593,-0.191201447708547,-0.284797271020661,-0.328910019769913,-0.313272796941971,-0.244656856335589,-0.144729201350689,-0.017162981850385,0.114536772103858,0.223419350344984,0.290666890789811,0.31215021202334,0.279377835999069,0.200477061571836,0.0983291907383803,0.00172903878058292,-0.0598301128147544,-0.0708219613297997,-0.018393791271801,0.0926625827085962,0.233237613714957,0.372408838035431,0.484275220698942,0.544017046406055,0.534208722670273,0.467211218023869,0.345211553337224,0.191221658603048,0.0175604725724224,-0.133631202117506,-0.257867134558429,-0.313278256336175,-0.312634498643525,-0.240176143500108,-0.130341427993352,0.00759517819364447,0.127051933155729,0.232152346045191,0.29806588956528,0.329667946300839,0.328285545526739,0.305714080778384,0.268384884629389,0.22750060374325,0.196978274472537,0.174883214251274,0.173816031537892,0.180865543759904,0.192711962985806,0.195827256582827,0.20016260548441,0.187267674828336,0.167192361221347,0.138861751015483,0.112187245346862
