0.917275764501952,1.407797912465,1.77002902333546,1.91261104329704,1.75716698707752,1.33284129390217,0.70614158219861,0.0171467222623572,-0.603009035118587,-1.01304488659207,-1.1462022916819,-0.964321051093821,-0.52771500434871,0.0736380672561435,0.696094662905396,1.22057804604742,1.52226103639636,1.55478495816093,1.30825665810967,0.847295206011215,0.261923996803727,-0.310213735082724,-0.750490112196544,-0.962640803800141,-0.915236538118517,-0.613717299566682,-0.139300359616923,0.40122616045702,0.881383208233473,1.21119436532056,1.30540496448447,1.15906918105181,0.796843564726535,0.305615915248499,-0.219584228891431,-0.658182641505746,-0.936841307595811,-0.995552672260526,-0.841881238514555,-0.524811789500337,-0.125677405177704,0.279742522326455,0.591479732095841,0.747880787685407,0.730149942971783,0.555799408726478,0.248322893030793,-0.105785899115595,-0.433127111922093,-0.664150111313615,-0.78761389925189,-0.7704360474575,-0.648775454028109,-0.453684151166967,-0.253605051031649,-0.0672058035871245,0.0460982885009426,0.0791885468115346,0.0225231679775497,-0.0905253385631283,-0.239384678697097,-0.374305993564714,-0.472258211808149,-0.516609212233711,-0.506936814649229,-0.445088133677479,-0.349635198665122,-0.249648106922738,-0.159064579479967,-0.105547438005875,-0.100752991561042,-0.160007261725587,-0.252130922266336,-0.366970121551814,-0.475527455233461,-0.567305033773133,-0.613747581457685,-0.627393392862411,-0.604710873528471,-0.558699779657914,-0.488932677201808,-0.406855826240662,-0.316595844298006,-0.226964759910692,-0.146257278987879,-0.082072515784347,-0.0458289293804135,-0.03364069560779,-0.0502012798233257,-0.0738930655915676,-0.117181880625429,-0.161563035329839,-0.213509180296541,-0.257170920101358,-0.297176079419964,-0.309014823844668,-0.295512035629327,-0.252027259560909,-0.181897687022754,-0.104024725794462,-0.0321836438757305,0.0117165429349518,0.0381929391350852,0.0315239466073163,0.0043975556819302,-0.0363359734676791,-0.0572724480224209,-0.0722284659177272,-0.0621617087929358,-0.0300620083570269,0.0177123779401507,0.0576483324582645,0.094746626426404,0.10450146379219,0.0928498698465443,0.0411427547956757,-0.0326598994300439,-0.138436008437021,-0.240674710094887,-0.340495340880808,-0.402664483761305,-0.446683825979608,-0.443357815199949,-0.417740013110312,-0.371728977347231,-0.336736508117942,-0.312543472240429,-0.329267287704825,-0.378729286978238,-0.464060218441006,-0.558226192840447,-0.65179092568665,-0.720490190405265,-0.751844223589159,-0.728737197134281,-0.656622283614465,-0.537726212186952,-0.398791599642189,-0.26768714748948,-0.179527165378073,-0.145677947734707,-0.171586606467293,-0.246938647218318,-0.348051310011841,-0.443146710020478,-0.513895988361594,-0.540233012317483,-0.506140674634969,-0.417385843657755,-0.278648737477754,-0.113886844072835,0.0477622261358304,0.178311315789676,0.255964785873764,0.258764085298739,0.197156435774711,0.0806259549506665,-0.0632273252000951,-0.198345171169953,-0.293648945313713,-0.339531415044211,-0.313650260530272
0.985431359767551,1.4514502097922,1.8272225486389,2.02213134867894,1.94853408271752,1.62176329153563,1.09686061556307,0.488881688392171,-0.0835635938681443,-0.483274548910753,-0.64809927143778,-0.53994559453008,-0.202179622565678,0.293219726810785,0.814287223164007,1.2569291236563,1.51052433142391,1.53009457948591,1.29958480169484,0.87941152141102,0.348326081637791,-0.170906556448184,-0.570851426030016,-0.763184631960743,-0.722190928583783,-0.446412806598916,-0.0130778771771907,0.4819888231318,0.923989591799234,1.23476425138583,1.32468388273888,1.19551309241318,0.863289808507558,0.411333465850199,-0.0816385022556077,-0.493842155235571,-0.762176719040867,-0.826876389477393,-0.699771189041131,-0.41546317847103,-0.055012986584078,0.312693929266472,0.59777693462452,0.741097424959725,0.722058217125867,0.553165251166143,0.261153584840246,-0.0767602513505267,-0.387571970492269,-0.609455636897948,-0.724607025914493,-0.708014955618734,-0.590754423952773,-0.404742825559952,-0.21324962440411,-0.0372811043389628,0.0684640478258182,0.0946330464346321,0.0334453654500524,-0.0822727506834959,-0.233412143635533,-0.372082729564853,-0.475619149971953,-0.524008340302416,-0.51699625669489,-0.453196217722672,-0.351505074556617,-0.237234608230587,-0.130147642797642,-0.0570605512032592,-0.0315596098356289,-0.0690490422210174,-0.142928664975842,-0.243388618066166,-0.345000440339304,-0.437353565499415,-0.490473695157783,-0.516380774607714,-0.509050401171702,-0.477753072383042,-0.42253877457546,-0.354976406975669,-0.276985767906295,-0.194467229934397,-0.115842390435855,-0.0453031618508623,0.00447837580558558,0.0380709360391587,0.0440079665686825,0.0432110652640735,0.0141776275825322,-0.0234094586835811,-0.0784247515559435,-0.127782684139349,-0.178383741083784,-0.196916159827704,-0.187957364962518,-0.146799601535693,-0.083602679237686,-0.0133936426458908,0.0458770050430378,0.0742163965140765,0.082403175168335,0.060745228507642,0.0213347656734315,-0.0250749132242612,-0.0486014248306084,-0.0597087284926117,-0.044702390909172,-0.00734448738424264,0.0433609312147716,0.08764070649269,0.12652336481932,0.139169496470869,0.128525341498645,0.0769085870000564,0.00135933878550709,-0.107550970829865,-0.215380120718295,-0.319362376302044,-0.384761929667641,-0.431293715506778,-0.430310981291139,-0.407951303959239,-0.36843114885026,-0.342157859886002,-0.325482602971013,-0.345950104770179,-0.390688405872469,-0.46117202891612,-0.531665724137521,-0.600228342271335,-0.644185734409168,-0.657534948329366,-0.626669161641744,-0.557177842288425,-0.446233041169499,-0.321531951642307,-0.207292006100018,-0.13257559656395,-0.109569453038183,-0.14462496837559,-0.223860787548044,-0.326365568561669,-0.425569054921176,-0.50204232919,-0.534126942352554,-0.507755704570117,-0.423880793773476,-0.28537964756143,-0.115517437589791,0.0548611083444522,0.197353064395065,0.288151926827957,0.305389482781501,0.259856770091914,0.15753292223408,0.0259289527671069,-0.102735024007321,-0.195494196480482,-0.245268140442755,-0.227165443785683
0.928530166823115,1.3826796133896,1.78165288846249,2.03488080263271,2.04831028272611,1.82002964403161,1.39447881639834,0.861930027024503,0.329669844940806,-0.0716368258891824,-0.280699926951753,-0.259511776148438,-0.0314555207033308,0.348123303309347,0.763532058664248,1.12599690174039,1.33849074716967,1.35515272743604,1.15349757698495,0.787027382979564,0.320965708239543,-0.137824017079608,-0.494436049225026,-0.666565550786813,-0.635034502374778,-0.390961047463343,-0.00378775384640385,0.443570723228913,0.848184268885565,1.14283021358479,1.23834980572024,1.13733572491293,0.848737964276969,0.446706197116472,-0.00268170215059695,-0.38499802625131,-0.642933342983929,-0.719016434205274,-0.624451752007254,-0.382473122013926,-0.0681946035165412,0.25494005601274,0.507445276192564,0.635666865099442,0.618099879561461,0.461801470790991,0.196566692563133,-0.1103755855508,-0.392932892108399,-0.59828219214095,-0.701735858751899,-0.685479347570596,-0.575428122685468,-0.399930794407163,-0.214887908784403,-0.0462849476811111,0.0552924684466428,0.0784591078816853,0.0149976994385352,-0.104953885556329,-0.260909367345539,-0.406445235369651,-0.518125100521504,-0.571728711848615,-0.566273329650323,-0.499225032286367,-0.390703186711746,-0.263137298200806,-0.142133826608844,-0.0524517083189915,-0.0101368775673805,-0.028963255270336,-0.0886339065299389,-0.177824580826045,-0.274995071837683,-0.367592645593752,-0.42508007598666,-0.459365288583708,-0.463933648521512,-0.446589266641184,-0.408278339212853,-0.361451813937179,-0.30146700977785,-0.234506398986272,-0.16509045523956,-0.0960586944174833,-0.0402589445777521,0.00624835162648467,0.0319489703538205,0.0515035607617353,0.0399685767052157,0.0157835325718838,-0.033392181056787,-0.0832170914746745,-0.138311888356616,-0.162731055148622,-0.160733290369162,-0.127485371527519,-0.0761382597469966,-0.0200158078532972,0.0225213370019725,0.0332601477784465,0.0230414252494215,-0.014399428593256,-0.0653875480400532,-0.118623139178299,-0.146240789034277,-0.155197982265626,-0.135556361525761,-0.0932755912841618,-0.0367396215469901,0.0154562999148355,0.0596396239147907,0.0801619355105977,0.075896068034509,0.0292751039872594,-0.0437720002996028,-0.149461209253289,-0.258231747422297,-0.360854146210146,-0.42313761577418,-0.462661526854756,-0.454276184886893,-0.422405569130959,-0.374650685009165,-0.341825998970275,-0.318117518583491,-0.328568159127921,-0.360477586966576,-0.414764568294806,-0.466030732660898,-0.516868963502505,-0.545826650542152,-0.547822747078966,-0.512495229167756,-0.444516437244924,-0.341379955330943,-0.228558009858116,-0.12822733682716,-0.0638844379450035,-0.0513029020364445,-0.0942271505500274,-0.179222577460605,-0.287684494557442,-0.398320162714468,-0.487187456260929,-0.531906147217044,-0.519825465617652,-0.447320748922447,-0.314941600429619,-0.147796269192045,0.0206074518001646,0.162817024643558,0.254179309567169,0.274671126645521,0.234943159939433,0.141151362450713,0.0203714521533375,-0.100869121758227,-0.190093780929534,-0.239150941803975,-0.224579653394841
0.709715284656801,1.1698161213028,1.60445256394876,1.92459291019308,2.02763504408653,1.89415512755286,1.55747041435541,1.08814562811406,0.583787263581356,0.170809380162229,-0.0871595558301282,-0.150165322034815,-0.0243760589295082,0.249608002030229,0.574682137704359,0.874341718631255,1.06354298879483,1.09594489572701,0.939855185861069,0.637278224480575,0.240748612219108,-0.159787915892747,-0.481935117615469,-0.645620854521471,-0.634939417571637,-0.434794746785911,-0.104031149188247,0.288771414817803,0.651373399182959,0.925155770952401,1.02705324149341,0.95680885599859,0.717695072683012,0.372316643743194,-0.0225568344938236,-0.366880379773235,-0.606038531403493,-0.688345994473608,-0.622037009635701,-0.421482677840444,-0.152201510968458,0.124911812307176,0.342675716707737,0.45618031216725,0.44024197824472,0.300747845900122,0.0708084378290623,-0.192188279471299,-0.436944303079459,-0.614429833929984,-0.700480192000881,-0.681719205907489,-0.582568104078361,-0.420187144940113,-0.246561137892419,-0.0910781753184478,-0.00138028845100145,0.0156999999745835,-0.0516046436207878,-0.17324046024927,-0.327010637440648,-0.468119973650313,-0.579546116002265,-0.633671498672005,-0.630908740552183,-0.565281372460526,-0.459720725445135,-0.327553337430492,-0.200159118190281,-0.0971953300782519,-0.0392459286894718,-0.0350774407424826,-0.0749563426781636,-0.144947772442384,-0.22947059605964,-0.313315138130605,-0.369190510763703,-0.408339283104969,-0.42278745693707,-0.420592096390895,-0.402900252452703,-0.380146078233927,-0.339479971691596,-0.289428664404038,-0.229201914971002,-0.160833434468351,-0.0980992251716467,-0.0395045980867541,0.00516083317416748,0.0436924795015301,0.0506666499145051,0.0423824571601421,0.00409178263092533,-0.0412218974137346,-0.0936725124944649,-0.120074613646917,-0.123508247664804,-0.0983120247425955,-0.0588189596728299,-0.0188835165901147,0.00550954394631319,-0.000910350780210841,-0.0290742745989195,-0.0805835886819915,-0.139975955955945,-0.196605596501877,-0.226662121605476,-0.231886484347081,-0.206623113447592,-0.15902513647511,-0.0944136638338084,-0.0296351528485233,0.0256167418833715,0.0583566806012594,0.065745877203058,0.0287791681116522,-0.0390570259730004,-0.139531939304468,-0.245793395256562,-0.344264980983542,-0.401332168792999,-0.429108695828387,-0.40670972235489,-0.357770323561782,-0.291217660989513,-0.238920409292783,-0.195842356523983,-0.186173609315163,-0.19786818882892,-0.235486280773968,-0.271434384760161,-0.311651022546779,-0.334208312926162,-0.333620482557273,-0.300013487785993,-0.239611879205511,-0.149014530366123,-0.0502987309753908,0.0353497329004074,0.0902116864232904,0.0962384781966691,0.051332055986192,-0.03521960155822,-0.14720264365193,-0.267443197291842,-0.370627785516426,-0.433746411397423,-0.442767899153803,-0.388351772338484,-0.272058654951437,-0.117598318911606,0.0407559825127794,0.176154586449838,0.261402796585536,0.279555001322461,0.240218293404917,0.147746819012307,0.0290995101603874,-0.0932357355079969,-0.186422800613265,-0.240403202755679,-0.23268883641292
0.389828798735917,0.870641160253836,1.35252733058035,1.74366354032835,1.93405903069255,1.88782532570435,1.62866956528181,1.21139684333692,0.725821249950057,0.294788740094371,-0.013898857990709,-0.157601687629212,-0.126607840057602,0.0557841193259557,0.307832477730644,0.564383080243737,0.748882163264092,0.814675270732346,0.717974838048379,0.489681535097842,0.167688598590767,-0.174056434099459,-0.467905636181275,-0.634459439370902,-0.658448862725615,-0.518582235046845,-0.260284655546385,0.0649817861287236,0.376232327613611,0.622874398417332,0.732366416739385,0.700136456830582,0.521527645841914,0.244865494758763,-0.0811298054518811,-0.376214874410781,-0.589700661663033,-0.673620495191807,-0.62958552054607,-0.467768640722673,-0.240436213434391,-0.00311175855292733,0.189327117541543,0.298546992875871,0.298885470358646,0.193923460243829,0.0164526972759875,-0.189939197347286,-0.388046486572779,-0.532023176720912,-0.601111954078604,-0.585214853775446,-0.503717642577815,-0.361999151536698,-0.210176167609213,-0.075090917068136,-0.000679309894415642,0.00984506853681367,-0.0616070843091554,-0.182837920081054,-0.334303242257274,-0.472202536399586,-0.586441847495049,-0.64284525856529,-0.645293305345476,-0.583500404623145,-0.484551463876087,-0.351532621121458,-0.221472678113175,-0.108014378773951,-0.0353736583829146,-0.00481650773078825,-0.0192037200899876,-0.0646872568858618,-0.131241947334347,-0.20236330202609,-0.257605797763941,-0.304009628646374,-0.329452352563849,-0.342659330600498,-0.344903867924496,-0.342883599067753,-0.31893411892042,-0.28633169475738,-0.23883813814473,-0.176012326702706,-0.112079048942744,-0.0465573772331555,0.0134903750991992,0.0695815496821804,0.0952663284294642,0.103141421510798,0.0782255349205359,0.0411762923307613,-0.00339535816914717,-0.0270719287998812,-0.0317607306971834,-0.0156180333001715,0.00833124388531911,0.0245364956547337,0.0241098466392637,-0.00447380469067726,-0.0501176011768658,-0.113023664105735,-0.175179164868051,-0.230468483174145,-0.257504804980291,-0.255687569122087,-0.220309281990828,-0.163480429134377,-0.0880901276910494,-0.0105699035028981,0.0542563988645978,0.0944898667005896,0.107912980270371,0.0765755739446324,0.0116167319553348,-0.0842725831651453,-0.18779267330604,-0.282569091544203,-0.337345115496009,-0.357180895276675,-0.324784935521268,-0.261198287474085,-0.175773538826184,-0.101207022323949,-0.0360152138696968,-0.00315587426386373,0.00730504512784736,-0.0140061324038026,-0.0377715523571207,-0.0715155461203034,-0.0938959272228493,-0.0985247125469945,-0.0736055307534781,-0.0248983188440307,0.0510834019183752,0.136340056851389,0.212063175968971,0.264233685452035,0.271644128124681,0.233698669240465,0.155728510042741,0.0484474959115203,-0.0757069491096282,-0.190692475526201,-0.275381612558637,-0.314304006696029,-0.29175336890581,-0.207812638403233,-0.0835410804329392,0.0488002964728072,0.163652310719345,0.232845767427786,0.241769050092698,0.198081569876341,0.106813620701051,-0.00773738619374437,-0.126946894133756,-0.218445825729407,-0.270065730536567,-0.262840375783877
-0.1121186240444,0.398231101851774,0.9274155534634,1.38351406910285,1.65304520618429,1.68672143734481,1.49485083990271,1.12235681909099,0.650766537122638,0.197924591556286,-0.161572144110115,-0.379017789378715,-0.427834523946938,-0.317718678049284,-0.114949213368585,0.121973241304439,0.321315515160571,0.432884537111119,0.404707621317504,0.254520397848389,0.0064952858182441,-0.27908371481307,-0.549907456462235,-0.728659943726397,-0.799174321243891,-0.731886034189363,-0.558137140378016,-0.31031982321535,-0.0568132763497941,0.161588446555835,0.280275091178443,0.289534983234455,0.177023483054657,-0.0245097424051634,-0.275999303063145,-0.515001871957036,-0.696466695636067,-0.777124308877936,-0.752889356556734,-0.631187168495998,-0.451104140379985,-0.259256863893135,-0.0973878578503624,0.00468619557434571,0.0227110103162592,-0.0423979558665935,-0.163069137756138,-0.309379738781041,-0.457160403791208,-0.564896120077221,-0.6159096558085,-0.600535264818159,-0.533759547257967,-0.412636995325086,-0.283434715977759,-0.166979634964434,-0.104091239107134,-0.0955447169668029,-0.163002736373822,-0.274080251561479,-0.415384895959203,-0.546229678312562,-0.659960801793422,-0.718678422609853,-0.730023599844461,-0.678318760560311,-0.58989063590793,-0.462608295328737,-0.336147139128671,-0.21677952446259,-0.133894338449279,-0.0829670899002516,-0.076513280410718,-0.10054418544792,-0.150357928175439,-0.205776676907445,-0.255744221302362,-0.301305300845491,-0.328627924345669,-0.347844592898675,-0.362474456315283,-0.373820213688686,-0.361944929205032,-0.344460096199814,-0.309381293473131,-0.253589115510663,-0.191202111724374,-0.124038964709314,-0.0548467911521372,0.0121757827908238,0.0524830921102118,0.0757195475797634,0.0672611897414364,0.0437339681678649,0.0118464396212725,-0.00878598197064967,-0.018548612161325,-0.0183205364516966,-0.0174936377261094,-0.0309927010004203,-0.0589306665650091,-0.110792476582283,-0.172216661654605,-0.245552485983766,-0.310684943746679,-0.365479226370693,-0.389368348502616,-0.381818277757462,-0.336004587012008,-0.267377288098036,-0.176852454311483,-0.0824032170793428,-0.00221276071066204,0.0519797065963937,0.0786083669873359,0.0605227537995062,0.0054195841963498,-0.080341029822714,-0.179095394661019,-0.273660730134742,-0.334129880231828,-0.356037376111354,-0.322832167701561,-0.249091408602946,-0.143228661280715,-0.0402650403294971,0.0552624767165551,0.118537004071206,0.155144658187702,0.150982158524605,0.137474308809398,0.106968058871036,0.0807830950767937,0.066940750605065,0.081611026880929,0.119668165147428,0.186186761494001,0.266482551956775,0.343848156527784,0.403627288499954,0.424191308536987,0.403621000755572,0.343733520119665,0.249070021944436,0.129542631340576,0.00909212580659444,-0.0927554241199745,-0.158413451463094,-0.166302104007858,-0.113476630553567,-0.0193686924429867,0.0883824779855875,0.183416746652089,0.237460145123212,0.234834942865984,0.183656736115584,0.0900564458859696,-0.0235057781403275,-0.140699358991095,-0.229638608003827,-0.276081280051236,-0.268039887828786
-0.54789370467117,-0.00692058736660147,0.564860601324215,1.07873695820124,1.41784020753311,1.52263866213676,1.38833464540727,1.05359881309929,0.590902577182912,0.113846862815173,-0.29601805166683,-0.578568528261553,-0.693249234522249,-0.637235493859808,-0.462544778526947,-0.223951808486776,0.00695747963083268,0.176882837932973,0.224886592931131,0.154096050143607,-0.0259577614739312,-0.267016803807507,-0.53183547286058,-0.742981271777736,-0.881048327600736,-0.903104199488388,-0.82545281171762,-0.660918493128985,-0.465959555621028,-0.270522977661178,-0.138680715428656,-0.0838257958783234,-0.126826107192313,-0.250432148025949,-0.427332906150748,-0.609053815019433,-0.758572330413065,-0.835533634848724,-0.830367074957613,-0.747585202107845,-0.611654959739489,-0.460047600291486,-0.323451905783414,-0.224716026397779,-0.186438481309088,-0.212123842935967,-0.281521817346968,-0.376427052038981,-0.48097508655265,-0.557899066411784,-0.594663462807763,-0.580539747363662,-0.52833032000379,-0.430527685289359,-0.327644138744552,-0.232437621440652,-0.18242747454791,-0.175228471076145,-0.23523863979351,-0.331632093958875,-0.458648331555719,-0.577292945496338,-0.683863663064699,-0.739114512584221,-0.754881192864668,-0.710783661327061,-0.632880145735658,-0.516209081346699,-0.39968984317726,-0.282895945122681,-0.197898040744521,-0.136379593211538,-0.114272868218779,-0.120481317729577,-0.153539483755786,-0.193643344104315,-0.237462889837095,-0.283327243779197,-0.312679374998084,-0.338047606299773,-0.362217890197487,-0.382730700347686,-0.37914855901526,-0.374527239446689,-0.349943412310336,-0.302610809497281,-0.244062470748451,-0.180973128248076,-0.111449327642799,-0.0466536959220331,-0.00446227778550384,0.0202814174925061,0.0181745225213375,0.000919142070826291,-0.0215682781656127,-0.0396573279013418,-0.0521555767589154,-0.0609175812981359,-0.0711572011638331,-0.0981300503267526,-0.135655243568601,-0.190153537213768,-0.250300862866885,-0.31995240299548,-0.379209222325178,-0.427649534612605,-0.446692723529136,-0.434075361827652,-0.382191205457339,-0.306813226742091,-0.20976069792971,-0.109061570573022,-0.022816766615295,0.0369655098191292,0.06887266123534,0.0576058246935593,0.00702741165606331,-0.0761553414032412,-0.178975132456392,-0.282695414132164,-0.3578143212037,-0.391243458497928,-0.365660887038538,-0.287561232417975,-0.167807201727586,-0.0421895648281276,0.0772495022024505,0.164321830305204,0.216267975695516,0.220290878500639,0.205637120807033,0.166749144426517,0.125245907546379,0.0952331929821318,0.0943073759991531,0.122274845825038,0.18467237807281,0.268183798587608,0.354233933671151,0.425723353049816,0.459685146769367,0.454280129646925,0.408843999652575,0.326659537863809,0.216700668817417,0.10173005394176,-0.0026850280016635,-0.0765546999263883,-0.0981714197195741,-0.0631855212569724,0.00859827482477043,0.0969475751981524,0.174481658531858,0.213942414302193,0.201301748425213,0.144980476099576,0.0515828773472892,-0.0609758351409613,-0.174082507730382,-0.259596193318802,-0.30254045830781,-0.297732607093521
-0.77375077992424,-0.199736568531729,0.41355872250424,0.979371570670607,1.37796224580608,1.54247970437851,1.45512536257223,1.1481441093076,0.687342291891603,0.185345729300461,-0.268197724047008,-0.603256800032504,-0.767150316895247,-0.746566164131093,-0.583774212993898,-0.331714062052979,-0.0617632324730249,0.168832426486058,0.291350762380052,0.293600692136042,0.171801222727925,-0.0381426051676955,-0.309376289722286,-0.565684956257116,-0.779035222741428,-0.894718513452826,-0.912176318372353,-0.829389236648661,-0.689697456443453,-0.51626650408462,-0.37239387539399,-0.275156594121421,-0.253600311321265,-0.303635844786435,-0.408724310456914,-0.532557864254141,-0.648133720209349,-0.715832360868889,-0.72367736260475,-0.672325547261149,-0.573222276260241,-0.454516149080267,-0.338179057180065,-0.242137999667774,-0.186954816477077,-0.180122626839574,-0.206348703678623,-0.257253030373697,-0.320945505250134,-0.367111701616033,-0.387592855878144,-0.373964873908074,-0.335102538008884,-0.262268009277903,-0.189200966568732,-0.120142639640126,-0.0864342454342016,-0.0863005937520929,-0.143418508915447,-0.22752583456152,-0.338791309535516,-0.443135649139477,-0.538260457322679,-0.587521374405422,-0.605946268478687,-0.573171509113501,-0.511164990203461,-0.411714751119766,-0.310530472818835,-0.202774292279245,-0.118439706799457,-0.0486966969577263,-0.0121275970779982,-0.000734128131133025,-0.0147574799975384,-0.0371582766791063,-0.0705158610240285,-0.11065812924453,-0.1368194751074,-0.164636956325032,-0.195686349214225,-0.22442721799538,-0.231741426628513,-0.24123136034358,-0.229465461913638,-0.193998825838171,-0.144644857093713,-0.0936490163284334,-0.0382810103692159,0.0102052019037189,0.0388403108177603,0.0530483273262176,0.050279115262265,0.040027371172766,0.0284377213516884,0.0209467225721829,0.0157814831853786,0.0106099656052268,0.000689205262717225,-0.026281507765367,-0.0643358365555861,-0.116679718044302,-0.175346217733827,-0.241363255298774,-0.296889154656487,-0.340071297130317,-0.353541372201785,-0.334597127413171,-0.277559592598191,-0.198216609101599,-0.0986610418166471,0.00254875926403381,0.0903093857598027,0.15059953239171,0.183155206334696,0.171787376131972,0.118672214859706,0.0281811779843219,-0.0845253161215912,-0.200172708055191,-0.288699395659063,-0.330961367778846,-0.307743972820022,-0.225046468371459,-0.0962614660366611,0.0429278531066237,0.173734180215641,0.268695855790948,0.321909730245341,0.324347291711849,0.302236768600308,0.251699229907021,0.195511514359332,0.150894217429128,0.134440192190553,0.150888957891399,0.207358737813825,0.289389714497389,0.377815542215747,0.455167259522809,0.499117988400194,0.505947075659893,0.474529557310152,0.406893464946605,0.311153583743832,0.205211441537969,0.103024239781334,0.0246356363321305,-0.00956359941791333,0.0042471396408162,0.0502306785191654,0.11447835085536,0.172052560403738,0.198791596625252,0.183384010430916,0.132523707694875,0.0522646006705096,-0.046946924447831,-0.146104717214722,-0.223701089771043,-0.265265794879732,-0.269329252517609
-0.837925240383334,-0.241835514705783,0.398654166327088,0.997134390049358,1.43422929555895,1.6405548250695,1.58516335865043,1.2960149917235,0.834209682001616,0.30953953076399,-0.181562879050329,-0.558391239754796,-0.756396340028147,-0.755482370019508,-0.589220763577823,-0.309705998476796,0.00847380564996262,0.300621199211985,0.49508217649456,0.564677239539713,0.493346707872149,0.307834568780216,0.0289301692944264,-0.270951117872279,-0.553672601419493,-0.755160349526019,-0.857606228605397,-0.849529155214153,-0.759857044364816,-0.607188586516437,-0.451578192940499,-0.316930474049647,-0.238113953382403,-0.224735734504608,-0.269640116206245,-0.348415044980968,-0.441066680914538,-0.506330647879473,-0.530861347379024,-0.510393597308599,-0.446487451289707,-0.356825401537469,-0.25842478072428,-0.164031142507148,-0.0916595322533706,-0.0509813195112988,-0.0348605231778949,-0.0430187691866584,-0.0652684828244972,-0.0812687974808105,-0.0862004657065243,-0.0728659981788705,-0.0442113400965935,0.00532093252693646,0.0519478404168778,0.100512692478771,0.125918544752169,0.124467183802904,0.0768730120554639,0.00848175798078147,-0.0870853313796842,-0.181896736816324,-0.268838436978575,-0.316353367622184,-0.340713375014668,-0.32476922119313,-0.282825617577404,-0.209819128396749,-0.135589309690554,-0.0506620318472277,0.0206363658825729,0.0851090884320899,0.126516347376827,0.151773952739658,0.157571330944588,0.156517593717707,0.141552569671599,0.117370459585893,0.0998424176174284,0.0750210262474392,0.0433603790283185,0.0120604522014063,-0.00266655883888857,-0.0214383864393857,-0.020832036235557,-0.00151925718618259,0.0291666154792462,0.0571548538416429,0.0868959711677978,0.108341961938023,0.115296690545953,0.111443223613694,0.10012234032726,0.0884344527187879,0.0796962340471715,0.0776398038746335,0.0793271684842789,0.0805464012433809,0.075645196967191,0.053776039670687,0.017316415943592,-0.0339160509365717,-0.0935294638055818,-0.158242470137873,-0.212000590794078,-0.249802618356958,-0.255504149826794,-0.229203820503359,-0.169034977555422,-0.0892808593090519,0.0059012569288642,0.0974900654714895,0.17609688137601,0.228330737484208,0.252544566615297,0.232370724512853,0.170822386249117,0.0703516883416005,-0.0530669762687299,-0.179752942921082,-0.277846791229265,-0.328815358377346,-0.313073794796062,-0.235021769096854,-0.10845258114898,0.0295117248804719,0.158483306469808,0.250830923033864,0.296812140600967,0.291590952268346,0.260305046369237,0.201167371662067,0.136691922393483,0.0863565567498985,0.0655477911113596,0.0818344666309109,0.140496206271012,0.227385217496663,0.323922792402917,0.410992805442105,0.467262283634997,0.489002937907417,0.474987458522324,0.426153746040359,0.347812228414018,0.256363737429758,0.164260359046859,0.0895830091228678,0.0500009421751887,0.0534440641323908,0.0839580624229509,0.131436951390844,0.175227505434841,0.197479858431956,0.185961298245699,0.146381760338941,0.0879215602477968,0.0106251281204102,-0.0692996428995201,-0.135317904355805,-0.171595365298747,-0.182832417848272
-0.791542000039995,-0.193813755813335,0.449367647665318,1.05428617523057,1.50311389338271,1.72616965578728,1.68547684296939,1.40656928268488,0.944857281256979,0.408671169358472,-0.102731140427774,-0.500946843775514,-0.716636721319369,-0.724426428400236,-0.549622926338163,-0.242597880388036,0.118747133130243,0.465265132895758,0.722578438322416,0.848183346827322,0.818078929730385,0.652119200208465,0.367411591133538,0.034008037110772,-0.30045046737051,-0.567970623664216,-0.738147707872649,-0.793046678743412,-0.750351302071842,-0.625552296647883,-0.471784521663068,-0.318646162535215,-0.203162723853285,-0.143379214708365,-0.138544494110563,-0.177613312699174,-0.24886359225783,-0.310947631852234,-0.35080560238628,-0.360119730328771,-0.331551580851024,-0.268290446694194,-0.185270752966731,-0.0952269113921935,-0.0159173500475869,0.0473651750902904,0.0928304936760792,0.114803221728183,0.122315598402028,0.13030431989905,0.138393958855728,0.150885766156768,0.170133008931683,0.202013141086448,0.231722484327841,0.265744730873132,0.287360946618274,0.290203862768813,0.261507876663008,0.215440631883709,0.143973636513178,0.0667073882555069,-0.00693425051096937,-0.0563139920513921,-0.0926567702022083,-0.101283137543436,-0.0869303851891537,-0.0487486716835589,-0.00744303629002848,0.0480226799001469,0.0979086501847821,0.145586555699451,0.179937765521052,0.208187946733149,0.224732753949556,0.239640735256307,0.241993275505855,0.235309608282699,0.227011570279983,0.207123297909403,0.175989547661068,0.144648243701721,0.125877251408833,0.105702173241763,0.10281628514288,0.113221678464414,0.129595846733186,0.137230557695219,0.139844458090309,0.131124782935146,0.113265196160937,0.0886631843612574,0.0672261027161722,0.0541020155110686,0.05118758100474,0.0588294776524719,0.0736683257104266,0.0892250558329011,0.0978078845979011,0.0876717283649163,0.0583719455163074,0.0115015770883908,-0.0492523697269586,-0.113927016167254,-0.168397850569727,-0.205882319410472,-0.212185873351263,-0.187479813347258,-0.133313088925281,-0.0602427360134264,0.0271857342787876,0.110348072760594,0.183367982529313,0.231950030002018,0.252138515061192,0.229110021096882,0.16706145007424,0.0670780739314986,-0.0546998292231493,-0.178747210776874,-0.2750629551636,-0.326514250192613,-0.314577273621716,-0.239744564507025,-0.116231853155581,0.0194313273732732,0.145222661485071,0.234006162766241,0.268775792056392,0.249518670434072,0.200617727766717,0.124596626105203,0.0437501261703776,-0.0179437155331985,-0.0461264397825093,-0.0331198300039881,0.0233882826424671,0.111867232929314,0.212766712008933,0.305468366261617,0.370327666163229,0.403802016908683,0.399790204628907,0.362681153799338,0.294811665965914,0.213742692198962,0.131035299434732,0.0674843333592834,0.0325923041268419,0.0379589367978687,0.0657877209070187,0.109309561190707,0.149738519530788,0.179190230124452,0.181875932599687,0.162197689180185,0.127743907019963,0.0705879162867571,0.00186339701738324,-0.0626699118620377,-0.105545540077761,-0.13206388695207
-0.572618084324355,0.000806608966482259,0.622909220779107,1.20966781176657,1.64526841459768,1.86167778003228,1.82109807867602,1.54333230156736,1.08214655904797,0.54350546415467,0.0243120029735246,-0.385084526446759,-0.61293012674976,-0.629448504846909,-0.455284439390912,-0.134157184522626,0.254928966971627,0.641436569930242,0.94491771837683,1.11489204191549,1.11866126166378,0.96956810673359,0.681972241744483,0.3286866281173,-0.0372717691766084,-0.347353843920802,-0.561642182835228,-0.657089822477269,-0.647206953876786,-0.546516153094857,-0.398195035656125,-0.236394066214406,-0.101051145005656,-0.0132136708999899,0.0251825229163705,0.0118662015629386,-0.0490410382966145,-0.114802452132451,-0.173411392860556,-0.214089254444413,-0.22296968319273,-0.188311086886317,-0.124224204863879,-0.0447347749362355,0.0318217308579125,0.107550345316272,0.170854775030609,0.210505629912603,0.233602601434648,0.254604824452213,0.265830769914084,0.271486485551563,0.279760773222804,0.300605030417565,0.322179022382298,0.35162030811706,0.378770141075977,0.394920955121469,0.390302183072399,0.370034106378558,0.325966613703474,0.269161622133806,0.209850317709836,0.159901803454768,0.114024305468938,0.0834625543792027,0.072009704948012,0.0782302763265351,0.0885297784195675,0.113545320286743,0.141439408555103,0.172503204537836,0.199657722053989,0.230438703945911,0.258268294443522,0.286451507747302,0.302169040731027,0.307953652717137,0.3059195231558,0.289350413939869,0.261423372066697,0.23466871498482,0.217178864607447,0.199602901633772,0.196783547285893,0.201237537084553,0.206028996694817,0.198353490266649,0.180242265972332,0.148509304280731,0.11089575320142,0.0693293697693539,0.0388286398781945,0.0246607228925786,0.0284679949695018,0.0492434386260836,0.0822257224624977,0.117682355418573,0.143981444238607,0.146111212274891,0.122378671761491,0.0767476491869136,0.0119375878234946,-0.0553128524941695,-0.111234217385825,-0.149009553752847,-0.157193251602656,-0.136005486787505,-0.089271205159282,-0.0240878193860003,0.0538850019927168,0.128014013291555,0.194459655787456,0.238172697737875,0.252741795668289,0.2250091616288,0.161318524796931,0.0636165317410288,-0.0519108421753529,-0.166027989341787,-0.249837831264558,-0.291398826251032,-0.277143858099959,-0.205927291187604,-0.0907906790388367,0.0315348574008879,0.14051543241505,0.212190663833435,0.225950330316461,0.184698808865902,0.113387834335515,0.0190023763578369,-0.0770527975809972,-0.149752727274555,-0.185173006716032,-0.177024758014866,-0.126151956660855,-0.0412665468415819,0.0593168384661005,0.153283046307129,0.222476004421223,0.261767307879597,0.261730538688907,0.23025329207358,0.167859500952055,0.0946913472062321,0.0231525039750109,-0.0247730117563971,-0.0490749270727933,-0.0361009919508131,-0.00549510614576108,0.0381452282537707,0.078523052538954,0.118095352321028,0.137645136770763,0.139396180405069,0.127843597271702,0.0891610417759829,0.0292821056834282,-0.0344995464393869,-0.0842437551277558,-0.123013791077591
-0.283341128188604,0.245692909517665,0.825427945474835,1.3715341136605,1.77310969890947,1.96477459421362,1.91143140360246,1.62862861902465,1.16776006171456,0.63049106974305,0.107584239062507,-0.309800367956563,-0.551816718356565,-0.582592221513743,-0.420404833181981,-0.0987889756066242,0.298775745559913,0.704374321485344,1.03081674613149,1.2274380044037,1.25225397485467,1.11980429827018,0.841012023480019,0.491656369882946,0.122965531545116,-0.19656057165827,-0.425081132594284,-0.535297728345513,-0.540624543218432,-0.453440765972815,-0.308360269399081,-0.143805231568422,-0.00347646393754225,0.0943756124504964,0.145879706461922,0.139998467792096,0.0753234549232516,-0.0016728248197677,-0.0842556931962428,-0.159095546616971,-0.210211849085802,-0.209311730672741,-0.173941428016849,-0.11689996090193,-0.0567396319460107,0.0166009767805031,0.0815326141678127,0.125904138517087,0.15385030620858,0.179697254525679,0.191102096199289,0.192598221800913,0.196009774275075,0.215158168259162,0.239904825464268,0.275532059428183,0.31499278794863,0.350383872351219,0.374214612221355,0.383993186941081,0.3703794542664,0.339228777087465,0.297876149624988,0.251830110505796,0.200056741137947,0.153594140199267,0.121094716243377,0.0994507503641389,0.0812819505250239,0.078668952729265,0.0853811221948862,0.100948890548493,0.120585643688709,0.151093068631136,0.182977731360323,0.215301205522815,0.234788471555624,0.24626709542798,0.247228573729001,0.235224026618305,0.213700096780132,0.195621559821038,0.182168174723916,0.169425763684434,0.166863537313544,0.166741913339747,0.161401393939136,0.145288714868208,0.115891915546337,0.0758821790934631,0.0331491694605227,-0.00891170670659458,-0.037499155693921,-0.0448000510956357,-0.0314094652330016,0.00267263751060703,0.0502425394825769,0.100033552170067,0.138014145732761,0.145115116726707,0.12019291655961,0.0673623652511022,-0.00681563711579583,-0.0841145563787286,-0.146794792077047,-0.189054720293991,-0.198547354154325,-0.180151188899361,-0.134621733131812,-0.0697254540515764,0.00777775631264736,0.0804221314058799,0.148089830894276,0.19353805799268,0.210416625954409,0.187134461611246,0.132606796759692,0.0491646999648541,-0.0487057937259698,-0.144073222719998,-0.208742255393522,-0.235401115212218,-0.216142586280563,-0.148704250482247,-0.043983306513672,0.0607926397349462,0.146619797852874,0.195438203904894,0.187195089648623,0.125506148385277,0.0366210320870031,-0.0665283467225873,-0.167808918908319,-0.244047292901528,-0.280320976378749,-0.27403138923737,-0.229619816102826,-0.150814755134228,-0.052554021368971,0.0408250975597821,0.114827533679101,0.160879939571912,0.167138139026193,0.140860813794266,0.0842911566388841,0.0166410880836814,-0.0471334265826936,-0.0850020600075219,-0.101668923414909,-0.0839157547199338,-0.0505523661394612,-0.00591838451377722,0.0348323929289712,0.0826214140515927,0.113945348966546,0.130860158295537,0.135924998065334,0.114067203942203,0.0637000134708007,0.00554852306695322,-0.0428047857456426,-0.0844018492151526
-0.127062454474054,0.32879990864967,0.836476872771822,1.31408382256271,1.65960837821114,1.81503807337074,1.7478877979417,1.46843779197899,1.02268257747799,0.504056160968746,-0.00779729922529347,-0.42217637700227,-0.67164428752137,-0.715015179685026,-0.567500337951423,-0.254355354798289,0.138110950891089,0.545215240642628,0.87766661924213,1.08741307807832,1.12893550228483,1.01903692102971,0.764772684644245,0.440581644010492,0.0926066028503467,-0.212656037143561,-0.437407308019409,-0.548861842158704,-0.560869647770299,-0.482626243455418,-0.344645236352643,-0.184067021228393,-0.0498923244403123,0.0446422757352782,0.0936191310878575,0.0828875287492028,0.0039865029429174,-0.0923704252026342,-0.204188965373957,-0.315709946160933,-0.410924146729707,-0.443308923129865,-0.43456468071296,-0.397483040475543,-0.352568194655805,-0.282080736534769,-0.220106289042613,-0.177453511268678,-0.152678930335863,-0.128644202388813,-0.122217105751871,-0.126432322994784,-0.129253915182735,-0.110104501153822,-0.077601253495156,-0.0285086373903282,0.0295981626327857,0.0933566613418795,0.152247525343032,0.19631760726954,0.213431939925342,0.210227975948719,0.18837147520068,0.150125447877455,0.0967645186391025,0.0425950954033074,-0.00388412523104052,-0.0468049813069986,-0.0871992737195016,-0.112303475968629,-0.124457499715248,-0.124048595875951,-0.11295386814034,-0.088481125725147,-0.0593024695867485,-0.0311384129661329,-0.0147934520897847,-0.00455700652683497,-0.00105340350102429,-0.00649474254247285,-0.0159252394219292,-0.0202089304196889,-0.0221526375814729,-0.0251878389432136,-0.0205847523235009,-0.0176615443078963,-0.0215299541234314,-0.0333479399968616,-0.0586985051129999,-0.0939565878887597,-0.129383457338892,-0.163364863781359,-0.183402135672916,-0.180876871943347,-0.15597746071501,-0.112249308902467,-0.055531658931083,0.000218388572597672,0.0421375177506447,0.0462355488267957,0.0165216135599012,-0.044927557865679,-0.128805803163036,-0.219654383800154,-0.293715396278545,-0.347077102621881,-0.366850082026749,-0.359618180350889,-0.320172725642279,-0.257506648246236,-0.181691035030407,-0.108736397521257,-0.0382405576564535,0.0108885708502674,0.0318280250137309,0.0176183749863311,-0.0239985411351496,-0.0873915116866313,-0.164611175997537,-0.241189742248697,-0.291618216078777,-0.309313405442369,-0.294797354720682,-0.238459828135178,-0.150308390750961,-0.0637137409603118,0.000766878918398613,0.0334189777602638,0.0105098434447867,-0.0601433094398075,-0.157090882833903,-0.258710835689398,-0.356687766556661,-0.425335205864205,-0.452786520304044,-0.437223923182859,-0.388736349619596,-0.303644595907278,-0.199941347758147,-0.103209552265914,-0.0249722282889481,0.0256386426483037,0.0333940038343846,0.00825532731720882,-0.0449369844324529,-0.106920854242727,-0.163558579979939,-0.19041068341403,-0.194142024862261,-0.162542741904446,-0.115855582199894,-0.0575053858805314,-0.00664949130270132,0.0505413629210319,0.0875177583575967,0.108301947222114,0.11443301413482,0.095513758158164,0.0467465906119474,-0.00608186501687316,-0.0480341554069525,-0.0834983768007573
0.0963908255408594,0.450334450394505,0.856414280605605,1.24135004715758,1.51569391412641,1.6280533115208,1.55072277531698,1.28484917776111,0.867365553034066,0.381967030839909,-0.105418636012633,-0.507062785287476,-0.761157810807113,-0.820527488291373,-0.698355636737257,-0.410249192647576,-0.0433448910803194,0.346673579298941,0.669590149392932,0.882871672274801,0.939292641266376,0.857499733705725,0.640898282389728,0.360808026458836,0.0573212889030924,-0.206470564210318,-0.400877790536462,-0.491027113234682,-0.491808455625269,-0.412927200564542,-0.283102982069873,-0.133433290825372,-0.0164839656189496,0.05994313701018,0.0922553678835606,0.0659239660458482,-0.0347990170987039,-0.157406191587322,-0.300480534726383,-0.449864399189911,-0.587527505736028,-0.653196992690286,-0.670282133943695,-0.656958995559362,-0.633719850914089,-0.580962683491556,-0.538836389347113,-0.515618564401573,-0.509496762593059,-0.500025398277145,-0.503757729124973,-0.516372024039224,-0.52721243089185,-0.507887228123656,-0.466803322428415,-0.406725925497254,-0.334147741551963,-0.247407607119441,-0.163124160744976,-0.0952726711444981,-0.0556628182173829,-0.0351608731689779,-0.0389231706112489,-0.0661501520054181,-0.112558424031684,-0.161981178578164,-0.208790841910113,-0.256074917243613,-0.299680005357149,-0.331790487841316,-0.350205777083894,-0.356333292902105,-0.350147987268708,-0.336705750231193,-0.31696709128066,-0.302072411775495,-0.297258024485868,-0.297753857911009,-0.294179241663044,-0.296016907488502,-0.296077693171421,-0.290634845121427,-0.281609969394714,-0.275349414327026,-0.260161784773216,-0.245554887603883,-0.234536807516844,-0.229792330901223,-0.240923171776461,-0.26251337934498,-0.286660485300853,-0.309302720786722,-0.3179211544846,-0.301224433221278,-0.262458423954774,-0.206600123940862,-0.141718453608126,-0.0816588915738703,-0.0396572512480339,-0.0407411066357369,-0.0755092120724035,-0.143945085033386,-0.235939169005199,-0.338663768829613,-0.422929234702275,-0.488503203842505,-0.521680106716921,-0.527790396964452,-0.495995547809635,-0.437622178590383,-0.362572326089221,-0.284507667589911,-0.204863399640979,-0.14489027860159,-0.112009501557204,-0.109759214828797,-0.134377568355701,-0.175800510319544,-0.231273463051541,-0.285940500715534,-0.320184993988111,-0.324232209486946,-0.308066422515384,-0.255769257437778,-0.181096462836402,-0.108489573380079,-0.0626155750121968,-0.0442084864256358,-0.0797539673007695,-0.154394658469873,-0.256670282882663,-0.354786799811351,-0.4464255640268,-0.503711881439274,-0.520772058817944,-0.492758299056071,-0.437187161663072,-0.347123066445547,-0.243333998080911,-0.149549367902431,-0.075203230824953,-0.029544930251915,-0.027652831797221,-0.057800483033377,-0.110795581443302,-0.169042063396474,-0.216991624168627,-0.230101750927735,-0.215253444746612,-0.167189222145453,-0.106487908989567,-0.0371791275775746,0.0172009803634374,0.0708178227342129,0.100931291931814,0.115102738640377,0.111926739584031,0.0901002250244232,0.0422334290745656,-0.00507238675939801,-0.0435717399130699,-0.0734214356713124
0.377911911975818,0.616652085214135,0.909822624173448,1.19615856873186,1.39935634675854,1.47424568100274,1.39398265130617,1.15037184309725,0.772479543638693,0.331848141689647,-0.120407757980273,-0.50086381770647,-0.752946175152373,-0.828174158212758,-0.737192273088648,-0.484845751353621,-0.15657048963944,0.20115129207145,0.500680080468104,0.706230937552701,0.768003969108346,0.707094498375456,0.526729475614116,0.294338326037801,0.0441475018806736,-0.164348898787139,-0.310315733843124,-0.363604715388284,-0.339700328733788,-0.250238110839074,-0.123133827804046,0.0164486478994305,0.117205248246406,0.169502528361382,0.171077757311781,0.112435749880693,-0.0199239596531247,-0.175877882769334,-0.34890817474056,-0.523986873783354,-0.684613433951556,-0.773955514601011,-0.813919864019851,-0.819885694539476,-0.811163217066086,-0.775932773774792,-0.751950778022475,-0.742000260461004,-0.748578364933779,-0.753934426721808,-0.769105011471047,-0.789078741930206,-0.806939214559508,-0.789794630895353,-0.744714036635238,-0.673747900929103,-0.587751259688082,-0.484689889797949,-0.388279018946705,-0.307325618715452,-0.255094040878027,-0.218886872058096,-0.206524098079255,-0.2140729591836,-0.241855868012747,-0.275382985462704,-0.311659850674497,-0.351636154938675,-0.389442375170287,-0.419938777779054,-0.435356203891487,-0.438637764838808,-0.429504930613588,-0.420275822975427,-0.405641739910561,-0.400638299683915,-0.404016529136909,-0.412720552928459,-0.406373943138866,-0.401281699550501,-0.388387231751387,-0.372122783463279,-0.350964632757111,-0.3374699735847,-0.314886791419558,-0.293315269705644,-0.271453151496992,-0.254974637202436,-0.252786421220322,-0.26150184931199,-0.275727763286385,-0.289124643093635,-0.291590821965314,-0.270041690216059,-0.228681454384152,-0.171429500688889,-0.108136724700024,-0.050086581674448,-0.01186065073951,-0.0181331348066784,-0.0580725128365758,-0.13192419630366,-0.229814416895335,-0.341390212565492,-0.433368795598729,-0.506540029252839,-0.549363441189007,-0.566039863129569,-0.541705633911328,-0.491250230820226,-0.423832620642853,-0.348961165840688,-0.269160234629507,-0.20709667387691,-0.168847837712906,-0.15868655460981,-0.176617250484506,-0.208702393428357,-0.254428490789473,-0.29870507406036,-0.323526963814657,-0.319099389979145,-0.302845779582869,-0.257967555885605,-0.201255435651358,-0.148751701549059,-0.126235226786315,-0.126000583403327,-0.172629748869613,-0.245519086477851,-0.342440360278128,-0.422880778942525,-0.491928387706465,-0.520400517087695,-0.511686133200109,-0.45898816282974,-0.387760194117197,-0.289454302644442,-0.186903554786843,-0.0989611431002762,-0.0321440458901578,0.00579535076968983,0.00445566713950689,-0.0270634481269814,-0.0738349510957739,-0.12153508323602,-0.154466166432188,-0.152882043621665,-0.120352958494853,-0.0600051580222642,0.00589237848955372,0.0733822041452687,0.117640459792991,0.152272229974313,0.160881499595193,0.157958140366231,0.140177783071722,0.115290958359983,0.0729074962295121,0.0380373448175147,0.010168071582344,-0.00680504127568047
0.616593590412787,0.738119435998495,0.916809922758781,1.10766779531944,1.2490356814835,1.29887200986309,1.2289183730463,1.02623904991813,0.708982781320743,0.334562476943601,-0.0602991914134211,-0.399926706468439,-0.637057777216751,-0.724513981631814,-0.668200170348287,-0.464975294671444,-0.193396796808431,0.109552727611972,0.366835590041779,0.547051198850952,0.603821615936144,0.560143876294997,0.420879634858663,0.241643366213524,0.0527655081001595,-0.0936564947455555,-0.187201278127193,-0.204793266764489,-0.157889055981773,-0.0593160050171517,0.0626481662723131,0.189993413108852,0.274646724890498,0.303254998661149,0.272833216488497,0.183414923578551,0.0253155667267035,-0.154056307253657,-0.34237112305892,-0.521462842219541,-0.679938570772046,-0.768005619756797,-0.807781962433455,-0.811727311087068,-0.80116727132391,-0.771597748454713,-0.757133396683176,-0.753672636205265,-0.769274441434253,-0.788692914056904,-0.816475880884154,-0.84705581429996,-0.877104331934648,-0.870405351568822,-0.830505262155386,-0.760055863602958,-0.673477937753654,-0.569624649747562,-0.475705516736658,-0.396954724590228,-0.346784185988361,-0.308106754845467,-0.288743604345079,-0.283845914301966,-0.296095213114023,-0.311293142044082,-0.330286782665139,-0.354933969849923,-0.377010213519873,-0.395291514479155,-0.401829075303076,-0.401566564461544,-0.391764186784686,-0.391035847317492,-0.389209102753539,-0.399171672420169,-0.415029459901966,-0.435204807210251,-0.43330103601378,-0.428191866490319,-0.413076094488925,-0.394402712131921,-0.368836553468622,-0.350161993155772,-0.322996718906197,-0.295625021542866,-0.266647367627744,-0.243055587075765,-0.233752253836514,-0.233967841886942,-0.242802473575096,-0.252688897193198,-0.257060069615053,-0.240995541082719,-0.209429465361452,-0.162696407669149,-0.110527921223194,-0.0590032964829865,-0.0253321665945458,-0.0313673730218355,-0.0679081507579655,-0.134754451690173,-0.2269078209965,-0.334670124224445,-0.424538589279523,-0.497476068316773,-0.546956609521059,-0.573479552449294,-0.559345968772076,-0.521673067932541,-0.468125415250943,-0.402187457582691,-0.326943348026065,-0.266826135512161,-0.225864674220095,-0.206946582761709,-0.214528330489743,-0.233879352346029,-0.266218479645648,-0.296703842470008,-0.310940468595053,-0.298262653159789,-0.280110449794269,-0.237891547436265,-0.192195600081529,-0.151285646125996,-0.141348640165085,-0.14805739379136,-0.195819530989026,-0.259682544888033,-0.344087157609613,-0.403748068875719,-0.449586551918758,-0.449892297314478,-0.416647295771154,-0.343042379566586,-0.259537944708473,-0.15699713208805,-0.0609289400713996,0.0167452248006226,0.0721495778754999,0.100586881894662,0.0945116131315953,0.0607187199811289,0.0187640250965288,-0.0218255730559812,-0.0459931578947153,-0.0378505056400454,0.00479508235377726,0.0699352978888043,0.136590295736106,0.198635432692685,0.232078552276896,0.244264610301397,0.228198196474029,0.203121242738791,0.166984537239646,0.135062403544376,0.0980549172835129,0.0764708944191833,0.0630502559565462,0.0626445526012893
0.710085782291121,0.711589661984249,0.776281784319443,0.87638237921128,0.964929977589908,1.00477873593663,0.964542587748909,0.825507635864733,0.594719865845668,0.314516916604961,0.0053336252445345,-0.27065166423313,-0.47349974232642,-0.562224518118879,-0.537314328170422,-0.389055714797215,-0.179377884631823,0.0594659234330973,0.266844103668376,0.413782608369511,0.463257767415081,0.432835419436147,0.332737746771588,0.204466671823,0.0781721078042632,-0.00939261341269365,-0.0534643982817485,-0.0396891540928682,0.0260354311592409,0.124575655681044,0.234279721249026,0.342111237041436,0.406346976167519,0.407020652567548,0.346306143905466,0.230827008210295,0.0564822138807037,-0.135046809903865,-0.320138197238474,-0.482030087939296,-0.614565046947195,-0.678400866357989,-0.692780820544351,-0.672977986803931,-0.641775989728276,-0.601751156893556,-0.582004129860333,-0.577201400301737,-0.598882801234248,-0.632248786091138,-0.677050895025659,-0.726139290695173,-0.775570390637469,-0.785893441447827,-0.759528735820171,-0.697394078762404,-0.616595865645167,-0.520182578376058,-0.437963286676648,-0.371877848123091,-0.335695910056663,-0.310574570091251,-0.299400563016644,-0.296756091631251,-0.302905119075469,-0.305579159430851,-0.305068328841395,-0.307026718241417,-0.303121695947777,-0.301081421480383,-0.291179309110175,-0.284154432041353,-0.272862709298071,-0.27869073558396,-0.284873392368893,-0.303958765602245,-0.325720542388371,-0.351246901831023,-0.350819152038756,-0.345834076580373,-0.331096602636867,-0.313911909708843,-0.28889436543035,-0.271343985202088,-0.243976481397317,-0.213170776022378,-0.177677682610363,-0.149039894189367,-0.132815204174693,-0.129055606606731,-0.138738954661767,-0.154029238847317,-0.165691710743986,-0.160478923759147,-0.141792949249855,-0.108490411123027,-0.06831632527528,-0.0257603635837424,0.00101963259677101,-0.00336348279308696,-0.0308390462005621,-0.0813432288327991,-0.156240798363829,-0.245726044410819,-0.32218086514511,-0.390017727442019,-0.447541461752207,-0.48841976295773,-0.493643620850099,-0.479443910756229,-0.448035174524359,-0.398471586602003,-0.336393009126405,-0.287362535336294,-0.253022172271219,-0.235153271854999,-0.240083362486548,-0.252154229034391,-0.273437629905048,-0.290381821503313,-0.293459278712077,-0.272662620862801,-0.251605282284715,-0.209805241659611,-0.168162232859106,-0.130731865982426,-0.121392505038419,-0.124179698718025,-0.164545297674541,-0.217718365641485,-0.287912707689471,-0.332006134284694,-0.359024494893459,-0.337718693594138,-0.28479931658164,-0.196538930141469,-0.103832294654396,-0.00203082123846743,0.0837886800220606,0.14657759843045,0.184230210565107,0.196478061135256,0.178972446167068,0.139050846515838,0.0986823279169482,0.065456508375641,0.0522700115257721,0.0705958481304676,0.123842563168964,0.19299713446714,0.257006018972028,0.306254081088814,0.321997474428371,0.305836449803794,0.261533624047389,0.210634045230529,0.155554215451693,0.113685668200744,0.0807129468106895,0.0702757084404034,0.0705854921691195,0.0855983867390287
0.762256815917963,0.658763236230252,0.626371631398142,0.655375632935982,0.711432873174023,0.758714459613512,0.761453775074655,0.698324128449924,0.564565301053589,0.386878351798892,0.17123049514325,-0.0338512085418135,-0.19816281039825,-0.2864287074676,-0.294521689313445,-0.206004755945744,-0.0668635301294437,0.0970482730882028,0.240818887723954,0.342351489964204,0.372564266137536,0.344837456525621,0.274271280994362,0.189858566002512,0.118931534914866,0.0848250317764587,0.0902038850598326,0.138724547629422,0.22685917538465,0.328084187930606,0.427446724191507,0.510367717760554,0.545967138151241,0.51163546269414,0.417069411900253,0.275220485097115,0.0928542481110115,-0.0960284320700109,-0.259862618530175,-0.384986468749139,-0.470537139526878,-0.492299902913914,-0.466907456275111,-0.412326530192974,-0.3506584523578,-0.294538137125925,-0.265881401632527,-0.260919284423634,-0.290459370354778,-0.341706403027375,-0.405555097419036,-0.472893871004655,-0.534958012759297,-0.557372909394526,-0.542705142505655,-0.491791305741536,-0.42362176715794,-0.349130263108919,-0.294102185263581,-0.256458485782997,-0.24940429530306,-0.253725457411937,-0.263899583657089,-0.273510946523683,-0.279872374368342,-0.27196495021906,-0.249971972013072,-0.223857975896689,-0.189326811086989,-0.160985776460019,-0.131289491567465,-0.114832056009495,-0.102171579585306,-0.112051560699735,-0.125877112580159,-0.150756493430474,-0.175001269421531,-0.20045990082773,-0.20122781907477,-0.196390910101576,-0.186596778826147,-0.176066200154317,-0.160506718688523,-0.151284378830877,-0.133050225160477,-0.10652945229538,-0.0731657487521281,-0.0443679959517924,-0.0252991171581979,-0.0198585155703685,-0.0331903442065235,-0.0564609512844868,-0.0819479065575911,-0.0958276655951898,-0.0981239192613976,-0.0854850080355201,-0.0644228646918153,-0.0344982905085976,-0.015121496375515,-0.0159054059139555,-0.030268798773052,-0.0576515773963259,-0.105109294025032,-0.164436061640652,-0.215129345533265,-0.265369619758379,-0.31695543696985,-0.361546488921273,-0.378012893678305,-0.381928476921947,-0.368337282226473,-0.336114166326633,-0.287191847629658,-0.248999346319755,-0.219416492068969,-0.201848862598544,-0.198127561702561,-0.19890710932611,-0.203873777584554,-0.2010654204414,-0.182941704962253,-0.148021882960606,-0.116204498964308,-0.0689671973894446,-0.0269293479733339,0.00421119135583523,0.0106550806837497,0.0072416419032115,-0.0294121903729772,-0.0798161767871939,-0.140228644528989,-0.176972945060236,-0.195737155608507,-0.169881042827748,-0.112419320238009,-0.0262015081080339,0.0623911714060022,0.150764484145641,0.219794951558367,0.262383985848535,0.278247097643964,0.269962192580574,0.240290975162821,0.193665070235704,0.155032814420506,0.13049644794425,0.131571767680309,0.160916840911848,0.223041495797525,0.292624191319783,0.347747130211792,0.375064542110229,0.364828551405844,0.316028948786878,0.241194535947024,0.165823842761835,0.0978897360618792,0.0532416343893971,0.0285028291958637,0.0322217918096733,0.048674675555373,0.0785294507385337
0.600944504734566,0.430193478354521,0.341241350612052,0.338705592655523,0.395546582761183,0.475756774881161,0.538245007393503,0.559527429784281,0.523782607991797,0.446566191561647,0.324272596521472,0.19097319768333,0.0679878086238471,-0.015523107667609,-0.0534355587500709,-0.0277917900509627,0.0338952257608614,0.112846334566302,0.18048304480384,0.222722968650352,0.220555424129315,0.182791170584993,0.126050913925139,0.0681611053563992,0.0321278855156634,0.0320979615865618,0.0684498145072955,0.138831628844244,0.237774140562213,0.337366955277457,0.421857778145631,0.4773062450194,0.481443365328699,0.416722319860453,0.293555295672125,0.136114242508795,-0.0405653527674896,-0.207904207493916,-0.334025685225843,-0.404287981216539,-0.424888396304259,-0.386007980440921,-0.305662452947474,-0.201485943108135,-0.0968624503521992,-0.0127700965178385,0.0334266331386121,0.0465859703528312,0.0161572007688958,-0.0471163001862625,-0.127212235647494,-0.208643255945329,-0.279431584669421,-0.311197817321141,-0.30598490763516,-0.263178070897178,-0.206740291977438,-0.154695850259516,-0.127506747288612,-0.120069711135914,-0.146141408203819,-0.184331361297226,-0.221498296491466,-0.248956746819528,-0.262488678903548,-0.248976387357182,-0.210292981772972,-0.1578316291786,-0.0943995701601567,-0.0360308768617164,0.0165438619573892,0.0483600681067441,0.0664019800970822,0.0588319872762249,0.0380037410860093,0.00704982678593795,-0.0243582511930229,-0.0533129526253593,-0.0622873422243711,-0.0606636599194374,-0.0576661126059052,-0.0527499200592316,-0.0488155127673892,-0.0499667394748304,-0.0458665069100101,-0.0314288970614174,-0.0111552374163475,0.00935150416543121,0.022912672943436,0.0226428623985316,0.00290856545512841,-0.0281735830375721,-0.0662225908653181,-0.0982832819006124,-0.120136780340523,-0.128375803482253,-0.12622138360168,-0.108434733378563,-0.0907070418387229,-0.0800563046101818,-0.0724465824954978,-0.067707748048602,-0.0775629528291718,-0.0991337841477626,-0.117381564624255,-0.142240910118816,-0.177930882030178,-0.217866160979983,-0.237263816582139,-0.253290155352015,-0.256276305150829,-0.246702293233479,-0.218783645139709,-0.201231774844069,-0.184064836557826,-0.173135221122807,-0.163570672939701,-0.155924996271924,-0.147441711181504,-0.131305224264059,-0.0985049197725706,-0.0570051373961145,-0.0191912168809394,0.0290939044421667,0.0718456095916135,0.0995168247887317,0.10929637466822,0.111750377159825,0.0881262897978699,0.0486698107133852,0.00631102932239432,-0.0192511922400235,-0.0304051785378393,-0.00565282949978577,0.0481366643385961,0.119902189023472,0.192385582222741,0.259328881222741,0.304532518762269,0.321185155035538,0.311857099958763,0.283876960283163,0.2429765860292,0.193933281754924,0.159448224599014,0.144730463844144,0.154487051127403,0.186576942492851,0.245682835751011,0.30649689861619,0.346193556642666,0.349594388443091,0.315530706747598,0.241026292700461,0.143670299240556,0.0511983959148674,-0.0205306461828149,-0.0615013004884261,-0.073068443304264,-0.051017419990723,-0.0125053068586943,0.0347230157422392
0.308268479988118,0.105534472782359,-0.00626278962676133,-0.0132245751341397,0.0619686390346305,0.185883495130233,0.311956950954682,0.414694723327441,0.468564495172564,0.482694260182239,0.445251917524294,0.377564799964459,0.294163924347082,0.220224740830245,0.159360886491855,0.12838894498933,0.116933040336441,0.11143101743033,0.0995725192301154,0.0779808325289244,0.040140259926428,-0.00943413588355123,-0.0539587846258832,-0.0871437261262983,-0.0908140144927602,-0.0605106077390834,0.00283471299983715,0.0935774321401861,0.202027786687483,0.298830472371846,0.3673953962949,0.394843520771193,0.364521932506284,0.271819580939609,0.12979556840954,-0.0290741302243813,-0.188112318457003,-0.31971089863657,-0.398237371400501,-0.411012837740686,-0.370843363727379,-0.272605744894602,-0.138227473918273,0.0100027853617021,0.147846798259253,0.254098276676821,0.310659371422366,0.322740007154137,0.285770125387428,0.2108905786778,0.117139464000857,0.0243215290167595,-0.0524601833893824,-0.0896679224218834,-0.0907513172908944,-0.0571139166734475,-0.0141717247318323,0.0154554376813383,0.0148071782716193,-0.00897102657967722,-0.0704811730538969,-0.145697507217727,-0.218138633093952,-0.275250466487077,-0.310562228058521,-0.304375271690034,-0.261949796402703,-0.190813818938387,-0.104488751467174,-0.0194795008600448,0.051429405403568,0.0948955708351498,0.109971366119689,0.0959375963673028,0.0585250480029243,0.011749309636112,-0.038124262358132,-0.0799959413350847,-0.106635948411771,-0.11788339110238,-0.130387911507367,-0.136282562372585,-0.146112941106732,-0.154888766508337,-0.159302523296009,-0.150038751004913,-0.137437270441793,-0.123228741349787,-0.119100428222377,-0.12942277923655,-0.158772968927986,-0.198823824358674,-0.244967362934472,-0.285733642513253,-0.318088793144773,-0.338948715071038,-0.349811295685614,-0.342357081770865,-0.326804630280095,-0.305083909466637,-0.27528387906181,-0.238223936202553,-0.20929385593758,-0.18946940577921,-0.171510649296386,-0.166125950569641,-0.176741423991097,-0.200789538678365,-0.21346702835065,-0.230449536535536,-0.240743697284991,-0.248599589824177,-0.239543920313312,-0.241875656652771,-0.239466831196534,-0.23735385606502,-0.22289805085739,-0.20562025665531,-0.180942347744276,-0.147939527343058,-0.0987189085114238,-0.0492160443706314,-0.00478463693561374,0.0468507435413435,0.0947765262980382,0.126907758667683,0.149303755255747,0.166918982294304,0.163244893978821,0.139917697168135,0.117329604079983,0.100899492468255,0.0927940488413472,0.109069106074736,0.151372748739174,0.201886299094245,0.252946787202426,0.295658289841179,0.317106852309995,0.308525912868029,0.275092168584382,0.228646837883894,0.176198220230042,0.124281421548071,0.0917292326762326,0.0831438170412716,0.0975950690466746,0.129902419174591,0.184523243415374,0.237767927553688,0.267512999369497,0.25602059084678,0.207885012189368,0.117683016366293,0.00830242717141469,-0.0937044576577965,-0.164082370592501,-0.198078504782586,-0.192989501272558,-0.150741220081185,-0.0866054739009789,-0.0184545188924055
-0.000350643941580268,-0.200860360401005,-0.307361709522792,-0.300864443132622,-0.203337996180548,-0.0434183889346467,0.127532419691082,0.284565903403956,0.396811196245211,0.471981586699226,0.493233839148111,0.475010159757906,0.425242702868681,0.365197539132466,0.295708105355181,0.230066553883612,0.168924153247468,0.102722226564054,0.0302694826930418,-0.0444435592827269,-0.117636917470615,-0.186400975200863,-0.23097925907838,-0.249753317897877,-0.229174137585901,-0.171958946892937,-0.0804211252451832,0.03298346509793,0.149940488628314,0.240845315087939,0.290177670047127,0.285238381069821,0.216705540688146,0.0949946523364816,-0.0625740519453169,-0.220593089100002,-0.360594128901232,-0.455568963151302,-0.48838290347975,-0.451264309308177,-0.361021728461447,-0.217059676276301,-0.0459217654625406,0.127602682513282,0.280851565110948,0.393441320251328,0.447731955506304,0.451298612546768,0.405401292016646,0.322605545656143,0.22461440522409,0.133227508459684,0.0629754857030891,0.0326953285692327,0.0343000220437368,0.0644931161995266,0.0980076177898582,0.110889989341608,0.0875151583871484,0.0394308998212625,-0.0484303063577816,-0.1520746074172,-0.255537424764561,-0.340067141706318,-0.399875701239633,-0.410024854535005,-0.376258089681532,-0.297311952373868,-0.198237106657653,-0.0940480871597779,-0.00764923721252061,0.0494760276698766,0.064553285377647,0.0476673744800052,-0.00142635672802734,-0.061106194267996,-0.127423830484075,-0.181099155255303,-0.221190590950015,-0.239866284597941,-0.256596482859065,-0.260917994135822,-0.268552678349089,-0.271599383267386,-0.271277193778632,-0.258718509559044,-0.247390734959242,-0.237291519855299,-0.242104585672684,-0.264248232390089,-0.304282137126156,-0.352523246860198,-0.402299926207132,-0.444556525244027,-0.477872793030343,-0.501906924159218,-0.518690736467805,-0.520726952499258,-0.511489106033273,-0.489992887281169,-0.452243725071485,-0.39869995331894,-0.342562855003985,-0.28853471064951,-0.235126227094168,-0.196640433656255,-0.175358688241375,-0.176318577346859,-0.176804377932881,-0.190802593860518,-0.205558023289191,-0.228740244345888,-0.238493812003324,-0.260287103554624,-0.273685970052001,-0.28386848579589,-0.271504536423926,-0.251559626197845,-0.217524452117391,-0.173399804664904,-0.112526779405181,-0.0580980350234385,-0.0104451678706078,0.0385963853635846,0.085188300691468,0.116579746993736,0.146083908200181,0.173766610648071,0.186425508250561,0.177810096368491,0.171821173636792,0.163114917272723,0.157134552155467,0.164617151275261,0.193258185527243,0.222047175860685,0.249912387332537,0.267982905817791,0.266773811291234,0.235509884496998,0.18243074381902,0.122638748641286,0.0646527143949798,0.0166213321885155,-0.00610091606948603,0.000493910741390054,0.030828456339092,0.0742431874589415,0.132044621620497,0.182023630279458,0.201920841083093,0.173962590826659,0.108490263396834,0.00490949434164195,-0.111287686136701,-0.215129757150471,-0.277520083552508,-0.298213291782892,-0.27618464156499,-0.215806499425704,-0.129847145105131,-0.042376871408069
-0.230785733717638,-0.385024001380223,-0.45066231352986,-0.407766698489758,-0.280800637221168,-0.0971096953692564,0.0951672032216458,0.274140317832537,0.409177753653279,0.508834738556626,0.559441399738666,0.568847659890514,0.539477057828068,0.488513565897249,0.415844088735975,0.326219963748957,0.227060728099506,0.112932880174323,-0.00828685484544309,-0.129770466433578,-0.237496311212167,-0.327232969716748,-0.376732314027027,-0.388184402930725,-0.351552835969087,-0.274267216016944,-0.161498729454956,-0.0324442751001999,0.0856864105272375,0.169148262107573,0.200681550057299,0.170101153707258,0.0732483575710731,-0.0628720520318425,-0.224177475678777,-0.371851349502767,-0.487017599037775,-0.542030605448718,-0.534049930892799,-0.456717214958331,-0.331038166406355,-0.161646566975123,0.0222862865401821,0.199566240954608,0.348897092461479,0.452513776267405,0.494437922016198,0.485076643527801,0.429701599146278,0.342368455130202,0.24754724141814,0.1672160785452,0.114030162045884,0.102038272218139,0.119139367860721,0.156179048529815,0.190353329429282,0.195530600561602,0.157337583781245,0.0897504915036393,-0.0167763060700188,-0.142028767370101,-0.269504732106175,-0.375841059822109,-0.45593678094986,-0.482967621121675,-0.460945611907082,-0.381034625059659,-0.275260117236117,-0.15615164325811,-0.0569917022409369,0.013816426230646,0.0309533492409485,0.0109912416167074,-0.051693180964351,-0.127124770160761,-0.214904297329119,-0.28621093526457,-0.343987679621032,-0.371502648097262,-0.390704516231769,-0.387227022923715,-0.382637757309273,-0.368024027467824,-0.3550197891498,-0.334719401512374,-0.324694260894761,-0.320668721682537,-0.337990699090369,-0.371446985482789,-0.420633876041335,-0.475452647799597,-0.52995291672118,-0.574992789611673,-0.611343921193599,-0.638844845942647,-0.659812788958558,-0.667410570094032,-0.662210679909711,-0.642561184730165,-0.603614008034545,-0.542757131622052,-0.470554613956999,-0.3910490936971,-0.307007057279048,-0.233010102929209,-0.175777989321144,-0.145630801967613,-0.127150378544039,-0.131203699995529,-0.14715449531453,-0.179172553103726,-0.202678226786108,-0.236906869064992,-0.259912054431888,-0.27604015297017,-0.265582183501912,-0.245943081440821,-0.209515097931599,-0.164981903951774,-0.105713254306706,-0.0573338288678449,-0.0146991263990631,0.025368152917074,0.0656526622408427,0.0943180236187525,0.128586508998362,0.164106484980712,0.192131141872413,0.201715831850946,0.215123904475424,0.219562943129675,0.219369429788876,0.221485357448276,0.235799887564534,0.240646061618652,0.240982128522112,0.232215339055045,0.207041549272487,0.15488909348812,0.0879821892538187,0.0205864415648352,-0.0388946172918695,-0.0826236807404066,-0.0972729060697322,-0.0815814226745165,-0.0420258485258702,0.00724971841467353,0.0669160731492116,0.114367338232773,0.129414346596761,0.0956675693145377,0.0247528679980771,-0.0798382441666987,-0.191358773384024,-0.287726396653031,-0.339376126718857,-0.345489938137002,-0.309187093103037,-0.234560301470407,-0.131493953755144,-0.0280116966771759
-0.311249453307812,-0.389152491120389,-0.3931589284713,-0.306719169346226,-0.157572192574337,0.0313015084389057,0.219185974536555,0.388892277721774,0.515361102731387,0.610732554757309,0.6664642371323,0.685147922751782,0.668133598183682,0.626560599825996,0.559599129507357,0.462164759437117,0.347099859269637,0.20864169625663,0.0608705159300121,-0.0908044154026765,-0.22263802015812,-0.330235680139199,-0.388465181511592,-0.399308126761272,-0.354798856841541,-0.267789263999995,-0.14531815530969,-0.0107204686804656,0.101701673065072,0.175894778020876,0.195156084942888,0.152668133404625,0.0456226081654692,-0.0881248668506631,-0.237859724073544,-0.365658110532637,-0.455108875598017,-0.478108899954835,-0.44246657543462,-0.344949074268808,-0.208818469409748,-0.0407610146832536,0.130804342814827,0.287777880768223,0.410666431350814,0.487602584831361,0.503688463070969,0.471989429511347,0.401423553740263,0.30953287153215,0.220640231554208,0.155808516961496,0.122633402873657,0.133130945854316,0.171067314129483,0.221910603602143,0.266481562573991,0.280042138106907,0.245127600281675,0.175166892322222,0.0656773508782865,-0.0701666816509904,-0.216362892163742,-0.343745894687855,-0.445145287424759,-0.491904286244831,-0.481698531516797,-0.401112907184386,-0.287751807323705,-0.153826421941911,-0.0397831499176053,0.0456073274455252,0.0679708800977363,0.0476919144944622,-0.0246588711893169,-0.116150083557358,-0.228948927420005,-0.324032218259228,-0.403803485890453,-0.443359903464313,-0.463134920637138,-0.444297259861323,-0.417050459343963,-0.376051664497806,-0.341526727288088,-0.306302933704004,-0.292700074135888,-0.291792493876255,-0.317016376010884,-0.357222762102203,-0.411592224160483,-0.469536527067672,-0.523471237537717,-0.567233679060908,-0.603545241529085,-0.631411242393689,-0.652724362574198,-0.665223156050946,-0.665464031446128,-0.651373473864598,-0.616446990664788,-0.556424832411503,-0.478835839981466,-0.384789183066369,-0.28153029203625,-0.18489830134901,-0.105111663507384,-0.0527181605079352,-0.0227705054798259,-0.0214095322512538,-0.0415293074039173,-0.0812321884129311,-0.120374778618189,-0.168425553174826,-0.204845372225861,-0.230205753975467,-0.231540804810642,-0.221819073383281,-0.195581256708444,-0.164750636321177,-0.122764376189753,-0.0890136249529948,-0.0563353513312402,-0.0265197624784558,0.011366063754269,0.0446656656648156,0.0890231770544334,0.13471058523647,0.179386013354161,0.206339041555749,0.236534023349569,0.252625433037806,0.260378048900016,0.26219637459445,0.268520396897232,0.256467877745653,0.236516435644252,0.208031217392301,0.165748805683666,0.101762955934254,0.0322745037107496,-0.0318310677215656,-0.085272602350521,-0.118497937671159,-0.121187506153356,-0.0948478325610513,-0.0452244899215787,0.0138993518195222,0.0774693249424384,0.124006377145744,0.137623805975593,0.102751616495008,0.0303569561817776,-0.0711469474370576,-0.174755209982334,-0.263998883655737,-0.30971806557474,-0.308340718868652,-0.261981540445052,-0.17639573493373,-0.0593259554606791,0.0604594505606549
-0.153502780283978,-0.145459418833535,-0.0885059297712005,0.0263766976424721,0.171352060879447,0.329937991579333,0.474279561335195,0.595629469802736,0.682044805702,0.745473842619922,0.78390052657954,0.795356593402219,0.785275944255777,0.754150273025408,0.705400658204546,0.623454315135471,0.522628476241559,0.389462002857756,0.24310235607855,0.0818992935641135,-0.0627677957111922,-0.185469445291035,-0.255767701498395,-0.272015233557798,-0.225036342428479,-0.132123679972319,-0.000157131345894729,0.143275836985688,0.257900564735341,0.331716926264152,0.353285987498474,0.314686115691908,0.213922153222202,0.09303307735134,-0.0361475881978436,-0.143890039571704,-0.214010423314382,-0.219981331741536,-0.174439054735093,-0.0810711907223785,0.0377129629215101,0.174665416997101,0.307459144934247,0.41844009196938,0.492274532732388,0.524473063165568,0.501911772777207,0.436910250007979,0.345035757182003,0.248931382808541,0.169721630190599,0.126472732237089,0.121374069300776,0.162466397704786,0.227994496891588,0.300685153402726,0.363380338932806,0.394345379889572,0.371408956684598,0.306448745027428,0.19937706559872,0.0578233796063729,-0.101977173550878,-0.244375858035526,-0.359772353608616,-0.420580813671078,-0.418619414997491,-0.340279438915408,-0.225616761641463,-0.0881316599826517,0.0308649628288038,0.120990234464709,0.144609226300819,0.122265077392337,0.0464641237999552,-0.0515050848420025,-0.174574284658377,-0.278144375468867,-0.3630495801432,-0.403641070542098,-0.417863399434389,-0.382681640023856,-0.333513357004118,-0.270025942778157,-0.214301070413934,-0.159608351820019,-0.132638297620065,-0.12362233682996,-0.140613810060262,-0.172910415498063,-0.222048198068534,-0.277952549054183,-0.328838785041422,-0.371959264250063,-0.409097581974315,-0.439140416372499,-0.46255570419399,-0.483162670316553,-0.496258321484032,-0.498537920219494,-0.47846129075452,-0.432951185508128,-0.365538012952798,-0.273983182380187,-0.169220501665853,-0.0694197261598244,0.0159461184281017,0.0780410865281072,0.112767981856689,0.118992846865884,0.100139310468744,0.061906810056157,0.0161873422998093,-0.037812002382036,-0.0852363534286073,-0.120503740328666,-0.138595657658738,-0.144103697760374,-0.134236447196037,-0.119966339926087,-0.0977785339157879,-0.0789226079764233,-0.0588757510154724,-0.0408280038307485,-0.0111468192399085,0.0173768690441759,0.0570285467755756,0.0983273335197896,0.142227153978742,0.171004839193072,0.203975805706893,0.22381140019,0.234545738872595,0.234148464311477,0.234590789179588,0.213256304571716,0.182397526770683,0.143175923690192,0.0952456375410926,0.0289315717009398,-0.0373856134883939,-0.0973039795652533,-0.144440083769448,-0.170428177266265,-0.162786611008638,-0.125446569428708,-0.0618772230788423,0.0120630255260908,0.0856056924323171,0.136164958607816,0.151138488524382,0.117261331094238,0.0434784574473102,-0.0562992863231327,-0.155716948617255,-0.240419054383055,-0.283807750696233,-0.276599007556107,-0.221192558682554,-0.1246790598302,0.00528516363543564,0.140091736695114
0.12148814208183,0.215300941896109,0.327380642706016,0.457767185477102,0.578690540171215,0.681211039073476,0.75338703394949,0.796973733968517,0.815029097840658,0.819675935920008,0.819727408378313,0.810213102562318,0.80049965879715,0.780071825512484,0.759072263311238,0.708653370953243,0.640775919774161,0.535725715614007,0.414190874077936,0.262725733068691,0.116836141566207,-0.016775679750838,-0.106265415164193,-0.143871557251013,-0.115770234697707,-0.0368561261099914,0.0871373831878835,0.229634671385308,0.346767201368528,0.429595836613365,0.466688713038328,0.448402716683734,0.3700086840971,0.271438904048885,0.163236938781399,0.0688420546408659,0.00586362154614767,-0.00107783128640154,0.036359497644854,0.109464371107935,0.198926338247082,0.295471783948003,0.382743593436596,0.443592399024099,0.467393893071162,0.4519312832751,0.388043271870069,0.288500450409368,0.174062835218342,0.0712459303197003,0.000895563206169026,-0.0196473125810721,0.0056906303283298,0.0793576301853861,0.17771368275658,0.280492193017932,0.368485913640869,0.423642568869801,0.421689286749646,0.368603922935126,0.269657865293192,0.130209293215632,-0.030400475547754,-0.17452962353517,-0.288633691621496,-0.34933489668299,-0.343392249324233,-0.26456237236909,-0.147705890012659,-0.00838556524246411,0.11549323362019,0.210149422237147,0.242946067211701,0.227640140437159,0.16118087453732,0.0710849702504185,-0.0445685366335732,-0.141302394131419,-0.21688993921536,-0.248891757022489,-0.25342219622292,-0.205133682272715,-0.141429611836397,-0.0652868745864573,0.00450335568319142,0.0762419724415016,0.121062390523907,0.149392452445574,0.158662695463052,0.154070336845343,0.128661935637857,0.0916260929287117,0.0547970561936014,0.0167945978310543,-0.0215213866881709,-0.056908365502043,-0.0880803768566337,-0.12217014391485,-0.153094467110943,-0.177442371726494,-0.179766007970953,-0.158896128922445,-0.114534926719952,-0.0437568479319797,0.0445435976454439,0.129851660616343,0.204652187452364,0.263572182731997,0.297645499119604,0.30480066020661,0.288148053490575,0.256568785170833,0.212701634436364,0.163040364017518,0.116976543400146,0.0821580315538332,0.0540732300969546,0.0355338851064857,0.0271847258218224,0.0221118410470676,0.0215328241219674,0.0235213798545343,0.0295215170126353,0.0330125969910016,0.0479013123074216,0.0633881569427694,0.0872020714860741,0.11262026821618,0.144864434424825,0.167404494865193,0.195263806031837,0.214153750779778,0.225143844873783,0.223498977954369,0.219499287026502,0.193768367057177,0.157779700749437,0.113906987808398,0.0640373553973898,-0.000636491771861423,-0.061180674586631,-0.11421200865224,-0.152986489027184,-0.169441122514955,-0.148888592026674,-0.0988377074484295,-0.0221644162826669,0.0650771574996355,0.146695507675284,0.1978412534216,0.209264321070058,0.171024254515479,0.0902823609660146,-0.014250500952783,-0.116930161091408,-0.20245877956944,-0.247009960594313,-0.236723281916024,-0.175729648129383,-0.0717494644599218,0.0638862896887802,0.203181164658125
0.430728668203605,0.601346437182922,0.759647695440264,0.892816737288072,0.974403526912568,1.004326974247,0.988128079372045,0.935408788118416,0.86780112742887,0.798209895228244,0.748754153079742,0.710913413718738,0.701842571232506,0.697387699442234,0.71069018180288,0.699287372721621,0.672323076580396,0.601569422546967,0.511153459095768,0.377299579215955,0.237520437592536,0.096860161971775,-0.0136728813656963,-0.0825145246394,-0.0874707187488016,-0.037978689000748,0.0651019599266177,0.200854128835026,0.325285362879925,0.42796212802629,0.495598682968495,0.515481590467012,0.47701393340219,0.412891101833216,0.332520742157693,0.252124024943476,0.191029594524967,0.172580021690343,0.191004918517984,0.233271452666958,0.285604147978571,0.336120241653089,0.37427317721034,0.381483081783576,0.353739085978458,0.290075766989599,0.186185698082266,0.0549295133651352,-0.0774474098158004,-0.184172477276939,-0.247318195383539,-0.249840595199809,-0.20001961876581,-0.100513989893523,0.0250045754154248,0.15667383671595,0.269329345411897,0.347743327682864,0.365207322887182,0.324395509064784,0.23299585815397,0.0992243587812109,-0.055761112215265,-0.192908755867102,-0.297212594713214,-0.349206202074399,-0.334757187993351,-0.254123681335178,-0.137496912077846,-0.00118405827305916,0.122358572094054,0.217826252123837,0.258756848088407,0.252990408250624,0.200552174336421,0.124991026565352,0.0250882309652905,-0.0579303404815774,-0.120899629724837,-0.146308995380156,-0.149181718780064,-0.103815403498495,-0.0445557176241792,0.026422119030185,0.0972346148715554,0.17830228164006,0.242318350512231,0.297423672199662,0.345081315487827,0.382105051628049,0.395483544063186,0.39114751282414,0.378643657749647,0.35209383327573,0.315384177369584,0.276167072909257,0.237746603728862,0.193616692158595,0.150347428390692,0.111793684024872,0.0908549886818438,0.0859872166669715,0.0992178210863579,0.134240861368775,0.185267630898973,0.235794812653092,0.283429175618265,0.326693536834467,0.354921657906202,0.364462531314553,0.357566726439474,0.340804574784406,0.310401206849918,0.274914585206425,0.239557034365372,0.209863635348894,0.177388688733204,0.1487025323735,0.12477831682705,0.10072993015793,0.0783271099503739,0.0616648761963275,0.0513713925285301,0.0387991776671608,0.037909188227245,0.0395345536888738,0.0469749662302509,0.0545072086984496,0.0709377228480331,0.0816009473298947,0.10012714096837,0.11648711339034,0.130446570014137,0.133716611626442,0.135365879941102,0.115932055597627,0.0844962876542784,0.0406374337504046,-0.00898880984304324,-0.0712278660060525,-0.127784594438313,-0.175070387081786,-0.204465005864839,-0.211602201130624,-0.183382693886931,-0.127808230581187,-0.0488906635284981,0.0406090082380468,0.120713825886747,0.169118805580367,0.175603376772738,0.133219539738492,0.0451012993199981,-0.0662274778513345,-0.17648525530327,-0.265209700060338,-0.312107919128236,-0.298903349971501,-0.230746755918536,-0.119790071994324,0.0168030409979128,0.153559805162417
0.713391662417526,0.939513010802052,1.12411966788112,1.24046688923859,1.26343621789297,1.20416329664562,1.08013281483131,0.912330913485048,0.741649336257433,0.586775695180823,0.478568576758978,0.411474079445937,0.408279409517058,0.432976156247692,0.49539756791234,0.544946101008737,0.580324891359143,0.564716772338063,0.519331591788885,0.413898937378556,0.281727611204458,0.13019106536173,-0.0104446662503525,-0.119824176794333,-0.168107474136644,-0.153863515479532,-0.0740685014848034,0.0561007120448702,0.193524819755303,0.323177341242479,0.42817433930244,0.490840884183933,0.496484551586586,0.464883850101436,0.407708445938387,0.333674423370703,0.266474288269144,0.226933629466552,0.220857140242,0.230472046623789,0.248028187308494,0.258066232729396,0.252125132668812,0.210230146115568,0.134495986318903,0.0242779063501779,-0.119099787839223,-0.278617883158149,-0.425910424069284,-0.535204904292897,-0.59028662933453,-0.574578761645182,-0.50261753936608,-0.381206812464143,-0.233277047062278,-0.0767610420279776,0.0553049441607039,0.153404418503303,0.189141276229044,0.165447574321893,0.0862122828131601,-0.0324864920987759,-0.173424293868856,-0.295005765806824,-0.387104304777062,-0.428034217410132,-0.409011536708958,-0.331398244899633,-0.224892085626376,-0.10185592246387,0.00868560485669293,0.0936102258836497,0.133586102125702,0.135121270521608,0.0991206174120133,0.0451126384410618,-0.0275089454576639,-0.0874644564875071,-0.133241842659418,-0.15442290522612,-0.162765054892539,-0.133946449558508,-0.0921662753540932,-0.03646561104893,0.033698227398774,0.12622580652973,0.216550021607789,0.307783236417275,0.403367458556987,0.488794922886723,0.548790043339117,0.587739751196556,0.610201364318139,0.60628479822109,0.582703703260703,0.549320918645006,0.5078232118956,0.455723630438006,0.399315190170814,0.342348335498833,0.295855423867386,0.256858293040261,0.228715145428484,0.214564411912864,0.213638210090956,0.214514027772855,0.22302999920825,0.239505784517504,0.257813567697871,0.271611503931508,0.280531497282116,0.283824258032003,0.275916082799066,0.261247116555608,0.241112426798816,0.21997417129086,0.19243461021116,0.164165780356919,0.138586758619587,0.112754486248541,0.0882864231014063,0.0669958579519024,0.0493558639062108,0.0251689974255139,0.00824755683629659,-0.00876337892381529,-0.023645498819897,-0.0404538249406138,-0.0477416321904242,-0.0574860893016792,-0.0564963559496464,-0.0485362597721927,-0.034082811802279,-0.0239397789389368,-0.0122871801431032,-0.0180548899854977,-0.0379742931099318,-0.0747238214142135,-0.11837561864038,-0.172204706333772,-0.220420959882147,-0.255776089965437,-0.269209923602191,-0.259874250505926,-0.217571381711449,-0.150440180366568,-0.0661605180587826,0.0248349673209706,0.0989762449642611,0.138282143869873,0.131103979854662,0.0738171889497044,-0.0311717873922829,-0.156047103071715,-0.279643939895792,-0.374316874458168,-0.424548015874337,-0.411687136404394,-0.342494199780076,-0.230976978168512,-0.101788607391398,0.0253185997095346
0.937967075467724,1.19868324553764,1.39126193909863,1.47752264223192,1.43059816728681,1.27206308019681,1.03026576986766,0.739744062911565,0.458247048048192,0.215244739362956,0.0493957492540169,-0.0406155407033209,-0.0307042167179525,0.0348828390875192,0.158160754928272,0.281564266276108,0.391153667438604,0.441708775627481,0.448447759583367,0.375258461229917,0.251206139960257,0.0864468714942652,-0.0873229157222109,-0.241351078995174,-0.335488297666269,-0.358141476561403,-0.303137880940245,-0.180469338334754,-0.0311204148657104,0.123385970566366,0.262795851568274,0.365218848004971,0.412915213077933,0.412149258714614,0.37552433363963,0.306324194539037,0.233354713163494,0.173006239964792,0.142360559613999,0.121522592099659,0.107611008476279,0.0812096506262377,0.0378563181476796,-0.0427519026442456,-0.154035932757627,-0.29728879600193,-0.465251216821196,-0.639628230982943,-0.792169856354649,-0.897663995324961,-0.941346460649531,-0.90844494293431,-0.815860015937407,-0.674072610352371,-0.507276030358131,-0.331844833227133,-0.186039678891517,-0.0761055079102655,-0.0286554714162868,-0.036431923831801,-0.0983621955459944,-0.191789730239447,-0.305245323757444,-0.398729198103416,-0.470107513503959,-0.497947976323717,-0.481252533699888,-0.418514749123546,-0.337061303220636,-0.244042616761882,-0.163139985737683,-0.100390764218932,-0.06895679024835,-0.0629864699287326,-0.0803563141622925,-0.1061272727773,-0.141958805517702,-0.170730034832588,-0.193460544558095,-0.207905292376103,-0.222713435457914,-0.218629385642368,-0.203705808571304,-0.17412317197805,-0.1170713707252,-0.0261021181429709,0.0812689123361205,0.201250537687998,0.338764248045848,0.469377998137298,0.576645405745035,0.660667923638844,0.71989073488404,0.744310574831389,0.741990010084657,0.723677293292042,0.689721971251166,0.642516033258149,0.582665062343376,0.514614506283486,0.446492962277103,0.375343933913741,0.306474494180013,0.244448368607463,0.191973371292103,0.144142626937674,0.113208458743208,0.0995769005917019,0.104441307473956,0.120272719642582,0.144684529634467,0.169877928702751,0.189404285068808,0.200296839458592,0.202210456907631,0.196088720592405,0.183000448382215,0.166948045925282,0.153852741557493,0.14045396146918,0.127421464540596,0.110801893377624,0.0906915900000848,0.0567705267905271,0.0209572336268355,-0.0185192412513204,-0.0608401475700863,-0.106288242333209,-0.141694959732886,-0.17204257496946,-0.188067764029316,-0.186063106872749,-0.168984055151836,-0.14952759866584,-0.128723781800487,-0.120479414450553,-0.128365699019226,-0.15648165959641,-0.193637971207951,-0.23859904044653,-0.281603441799345,-0.309404924505011,-0.312572979244018,-0.292911598616614,-0.243143238429502,-0.171057725157752,-0.0884309334909492,-0.00453541751561739,0.0572746908770996,0.0815997316303592,0.0568393762622796,-0.0187038211493474,-0.140427909772099,-0.277863973235326,-0.411527713209597,-0.509204991526228,-0.55911323910072,-0.545762754898743,-0.478974853964857,-0.373830443873413,-0.258629453189103,-0.148906101502533
1.01710431160613,1.29333285451549,1.4815460502397,1.53455324764628,1.42118837305195,1.17410283861096,0.82558813137834,0.424052310023743,0.0404887413913463,-0.28018928526504,-0.495565125600601,-0.599223983471121,-0.569182141428032,-0.454110154813741,-0.2674667017241,-0.0688446050177825,0.114674686575172,0.228824803015994,0.282042070758248,0.240798991071176,0.128133386540532,-0.044538801976172,-0.240861312934892,-0.427901074628728,-0.560204708911218,-0.61945425902133,-0.592967589709953,-0.487466603667114,-0.338960251603398,-0.172663891806735,-0.0107662865771013,0.120851800177339,0.202340399918037,0.229208545004751,0.211821537694417,0.152025454444477,0.0802995732068761,0.0108907678453699,-0.0329101655334748,-0.0685169612595951,-0.0968096730766691,-0.139497885456377,-0.200355807420777,-0.295869250212382,-0.417995055021269,-0.570374196299423,-0.741096350487572,-0.911604435472616,-1.05747593784541,-1.1567651298268,-1.19297547344831,-1.15431602119417,-1.05663066029569,-0.912155712089382,-0.744888817699021,-0.570408310804505,-0.426143016623524,-0.317178496907362,-0.265779580532834,-0.257988748722195,-0.296751174930648,-0.358798587956513,-0.43759215136616,-0.498436336589701,-0.548207843565804,-0.566479284441125,-0.556492262002108,-0.514641883353771,-0.465040409355741,-0.408310817975674,-0.361331194234821,-0.323426819810989,-0.302356744062666,-0.291318752323894,-0.291365428066844,-0.292947720278974,-0.300555137286701,-0.308397727794443,-0.320936664630711,-0.338016722027684,-0.364981493442778,-0.387043769084709,-0.400251139564111,-0.396684207362046,-0.358275063043564,-0.277682592807565,-0.167161404204579,-0.0314860554168284,0.131353578424678,0.293401903164948,0.435245659209144,0.556484765003034,0.646680441103673,0.699962042443982,0.723207229863574,0.728096166672737,0.711567956292452,0.67977269927597,0.626166620844474,0.556248963331472,0.474330124508264,0.379708425144779,0.279037443502168,0.179929642075603,0.0860019000483611,-0.000889575829927849,-0.0661067849802898,-0.10828879040952,-0.120342258845139,-0.107956890290565,-0.0750511061311024,-0.0347054051958677,0.00810667987283823,0.0436450937888291,0.0724206063325978,0.089514944158439,0.104660156131424,0.11540763749588,0.129355563695586,0.138449684088794,0.147205765774792,0.143334137200576,0.130754108665999,0.0973099784559623,0.0568702305284655,0.00830830480464425,-0.0474304349147399,-0.110133798948131,-0.16431668440667,-0.210246466979418,-0.239237407536158,-0.242125956222442,-0.22216902383824,-0.191104090422818,-0.160316446508809,-0.138086106578428,-0.133488831704076,-0.150074470571189,-0.17859154805963,-0.209300160335691,-0.240474608004745,-0.253957433992538,-0.243613552769919,-0.211418151669473,-0.153862815271772,-0.0788687509460049,0.00033782349985541,0.0757375451428775,0.124935782363758,0.134673024336617,0.0968684398231827,0.0085160026048772,-0.121886855791517,-0.264430029519066,-0.403101063138316,-0.504797852537224,-0.561281734943121,-0.559915251344398,-0.511602374941036,-0.42865992101397,-0.342512350760885,-0.260682204415176
1.0967850529268,1.37213763309159,1.54094866196722,1.5534605459786,1.37656791940908,1.05152128254098,0.612971519008206,0.121319112426727,-0.344161981103916,-0.722915489612694,-0.973516737567417,-1.08077578734103,-1.02372547069534,-0.853276150594683,-0.602369558656462,-0.328753527380859,-0.0715413263255514,0.102885371598312,0.196388246804336,0.18297098833412,0.081418162253441,-0.0981458760826559,-0.309491448136198,-0.517395463370492,-0.674799216353138,-0.76261459106452,-0.759846404156303,-0.676280731011796,-0.541840794972867,-0.384308366740402,-0.221413707513888,-0.0837336508530514,0.0138463613207119,0.0589151522299742,0.0616954391518219,0.0191008404418408,-0.0370816117586371,-0.0996466956646862,-0.142865019229827,-0.182165741455917,-0.215385887256604,-0.26625291840708,-0.333632547044075,-0.430973942281437,-0.549901969509929,-0.694398574340036,-0.848233863802293,-0.997572957386984,-1.12096937439842,-1.2000348005914,-1.22085418195106,-1.17747771470454,-1.08099803501134,-0.944433128715608,-0.792268643465459,-0.635869874373789,-0.505244410961583,-0.405157169675235,-0.353728050307872,-0.329714562843635,-0.341376304808796,-0.369094770761597,-0.413414824203823,-0.443719637045543,-0.475392159254708,-0.488255076620642,-0.490410777195457,-0.471842464856602,-0.457040284757157,-0.438987027882176,-0.428451330898592,-0.41553145801953,-0.407555464808226,-0.393549955817215,-0.379670509534982,-0.362882410374844,-0.350411222034709,-0.344694183027652,-0.352296105118827,-0.374295479575636,-0.410662214434072,-0.453586231494522,-0.489212494736886,-0.510228093408202,-0.495062683980267,-0.438282495472215,-0.345635410336734,-0.221482118099482,-0.0651089847554024,0.0946819593214597,0.242061078806654,0.375328604686395,0.479072704429787,0.552456785830189,0.60272367523902,0.634707262330675,0.645787601645934,0.640285102128917,0.606000158235174,0.545583021576328,0.464580211908751,0.359908953749021,0.242170891493903,0.120551766500577,-0.000686548236389015,-0.11469500566753,-0.203470339410629,-0.26757631700083,-0.29528560662323,-0.287752728608429,-0.25167510087331,-0.205578837955827,-0.150481567241411,-0.100104513663718,-0.0529067837825439,-0.0172881234494134,0.0253174584582922,0.0668629085272856,0.112139967362835,0.146969716990997,0.18142162305973,0.195725046139473,0.195546213598662,0.170917499837885,0.137508204259502,0.0892737075484708,0.0294663931782918,-0.0417785214364672,-0.107519925087327,-0.166670909442406,-0.206162292389007,-0.214946719537022,-0.195927817325933,-0.160335071794602,-0.123030474156767,-0.0901784814035828,-0.0740193460326792,-0.0763122202814944,-0.0906024027436145,-0.103568380743113,-0.122496498615316,-0.125765353473433,-0.109241134145718,-0.074111959407756,-0.0207931884606416,0.047593558814562,0.116432869301466,0.176246796110707,0.207167180969826,0.202682364460865,0.156367775177608,0.0636214325408678,-0.0638797057954494,-0.197484819325791,-0.329939528442838,-0.429475177187813,-0.490924142703998,-0.502853887274502,-0.477817870184153,-0.421099449544314,-0.364525482741157,-0.306858445154127
1.14415309373754,1.40711164986488,1.54879012453832,1.52525231252119,1.29735633604155,0.916047434371646,0.415567312145392,-0.130592330413015,-0.645178196848003,-1.04897706934267,-1.30918373225902,-1.40161378138622,-1.31282336063574,-1.08830289964775,-0.781117577519166,-0.44423391495588,-0.12707709548819,0.100207725898214,0.228532680593417,0.240377096129672,0.151978700877682,-0.0258451990702368,-0.242487318179712,-0.458917081704058,-0.628754767381695,-0.735829072429964,-0.754531923930448,-0.698812667017841,-0.592451236654929,-0.463361996887871,-0.323358792997518,-0.204935654896539,-0.11232695007191,-0.0640227126049718,-0.0510861766189924,-0.0795881445322716,-0.117838031183581,-0.170215693499461,-0.209926172922732,-0.247234704019128,-0.276509911155637,-0.322862288369253,-0.376096240769359,-0.449139014340756,-0.537292333427761,-0.648271090799186,-0.763122120080181,-0.875398265141446,-0.966574846867371,-1.0206899191877,-1.02446167803811,-0.978787065038359,-0.890775611419865,-0.772149255030797,-0.646236712527053,-0.520483802919814,-0.414481130789715,-0.331742605760751,-0.285423622125622,-0.250659558382949,-0.238989375066637,-0.235346772650929,-0.2458218901312,-0.245342660239012,-0.255669062525764,-0.257382468309667,-0.263614633651895,-0.260898947726522,-0.271713037034137,-0.282369689752922,-0.299268634303568,-0.305743427546141,-0.30679937059362,-0.290478781465123,-0.265917175153594,-0.235520185443823,-0.206564164955044,-0.187910594448949,-0.187026543741962,-0.20651506830534,-0.243699714477369,-0.297610009428094,-0.35003711298392,-0.395558630910975,-0.412629269489564,-0.395902907247127,-0.345985697743825,-0.263335040439263,-0.146083025702482,-0.0199603931155534,0.106713471605396,0.230570036433707,0.334128883612323,0.419673706380049,0.495636995895868,0.553663101399974,0.595062823531661,0.618365789491161,0.60807797462133,0.562376922435544,0.493259989770625,0.393302564396224,0.277601554164225,0.15543703184959,0.0310990295081364,-0.0876220756641787,-0.182249128280274,-0.255929466741616,-0.29487757493583,-0.296834864707076,-0.269326583501414,-0.231093749089437,-0.179632016114196,-0.127539785286002,-0.0709012355827287,-0.0196316644971987,0.0487748450185685,0.123250825282308,0.20308571741789,0.269687599888557,0.335808513895135,0.377678862685785,0.399206321796684,0.392432535030568,0.371515858729932,0.327752824817632,0.266488884937027,0.190619719434022,0.117106350672688,0.0496936047746625,0.00176987964436103,-0.0160644596892444,-0.00669710802404426,0.0237856360606021,0.0584192329593897,0.0952734845401658,0.121262424185217,0.137827283629143,0.142390379437069,0.148163980297931,0.140988574798675,0.144095210453494,0.157208380105693,0.183683421159745,0.224423479715444,0.279106503141849,0.331211636664531,0.372281630991348,0.387157740859667,0.371900664845102,0.324627328149456,0.240574856742431,0.131618607304289,0.0211196378751472,-0.0910844389577402,-0.178944321252727,-0.238597317571516,-0.261029220025221,-0.25779900078472,-0.225762844984571,-0.192850262528536,-0.153834214925833
