-69.3139697706793,-69.2757283919491,-69.2639618138783,-69.2492535912897,-69.2433703022543,-69.2757283919491,-69.2992615480907,-69.3669193719979,-69.4434021294583,-69.5669511992019,-69.6404923121445,-69.7081501360517,-69.6846169799101,-69.6199008005206,-69.5169432424009,-69.4345771959051,-69.3845692391042,-69.3669193719979,-69.3698610165156,-69.3639777274802,-69.3669193719979,-69.3522111494094,-69.3522111494094,-69.3433862158563,-69.3345612823032,-69.3316196377855,-69.3139697706793,-69.316911415197,-69.3286779932678,-69.3757443055511,-69.4404604849406,-69.5434180430602,-69.6346090231091,-69.705208491534,-69.7287416476756,-69.6875586244278,-69.6081342224497,-69.496351730777,-69.4198689733166,-69.346327860374,-69.3080864816438,-69.2757283919491,-69.2786700364668,-69.2845533255022,-69.3286779932678,-69.4022191062104,-69.4934100862592,-69.6169591560028,-69.7287416476756,-69.7934578270651,-69.7728663154412,-69.6640254682861,-69.5198848869186,-69.3875108836219,-69.3110281261615,-69.2610201693606,-69.2492535912897,-69.2374870132189,-69.246311946772,-69.266903458396,-69.3139697706793,-69.3992774616927,-69.5140015978832,-69.6493172456976,-69.7522748038173,-69.805224405136,-69.755216448335,-69.6463756011799,-69.5110599533655,-69.4198689733166,-69.3669193719979,-69.3492695048917,-69.3492695048917,-69.346327860374,-69.3551527939271,-69.3551527939271,-69.3639777274802,-69.3610360829625,-69.3757443055511,-69.3816275945865,-69.3904525281396,-69.4110440397635,-69.4139856842812,-69.4345771959051,-69.4434021294583,-69.4492854184937,-69.4522270630114,-69.4581103520468,-69.446343773976,-69.4345771959051,-69.425752262352,-69.396335817175,-69.3904525281396,-69.3551527939271,-69.3433862158563,-69.316911415197,-69.3139697706793,-69.2992615480907,-69.3051448371261,-69.3051448371261,-69.3198530597147,-69.3345612823032,-69.3345612823032,-69.3433862158563,-69.3316196377855,-69.3257363487501,-69.316911415197,-69.316911415197,-69.3257363487501,-69.3698610165156,-69.4286939068697,-69.5375347540248,-69.6581421792507,-69.7493331592996,-69.784632893512,-69.734624936711,-69.6110758669674,-69.4845851527061,-69.3728026610333,-69.3257363487501,-69.3051448371261,-69.3227947042324,-69.3227947042324,-69.3580944384448,-69.3580944384448,-69.3845692391042,-69.3904525281396,-69.4022191062104,-69.3992774616927,-69.4022191062104,-69.396335817175,-69.3875108836219,-69.3786859500688,-69.3610360829625,-69.346327860374,-69.3375029268209,-69.3286779932678,-69.3316196377855,-69.3345612823032,-69.346327860374,-69.3610360829625,-69.3757443055511,-69.396335817175,-69.4139856842812,-69.425752262352,-69.4316355513874,-69.4345771959051,-69.4228106178343,-69.4198689733166,-69.3992774616927,-69.396335817175,-69.3816275945865,-69.3845692391042,-69.3757443055511,-69.3845692391042,-69.3845692391042,-69.4051607507281,-69.4139856842812,-69.425752262352,-69.425752262352,-69.425752262352,-69.4169273287989,-69.4169273287989,-69.4110440397635,-69.4051607507281,-69.3933941726573
-69.3110281261615,-69.296319903573,-69.2727867474314,-69.2610201693606,-69.2580785248429,-69.2727867474314,-69.3227947042324,-69.3786859500688,-69.4875267972238,-69.5904843553435,-69.7110917805694,-69.7610997373704,-69.7463915147819,-69.6375506676268,-69.5287098204717,-69.4198689733166,-69.3669193719979,-69.3522111494094,-69.3551527939271,-69.3669193719979,-69.3669193719979,-69.3698610165156,-69.3639777274802,-69.3639777274802,-69.3522111494094,-69.346327860374,-69.3404445713386,-69.3375029268209,-69.3580944384448,-69.4022191062104,-69.4875267972238,-69.5963676443789,-69.7140334250871,-69.7905161825474,-69.7963994715828,-69.7228583586402,-69.5846010663081,-69.4551687075291,-69.346327860374,-69.2992615480907,-69.2610201693606,-69.2610201693606,-69.266903458396,-69.2992615480907,-69.3375029268209,-69.4198689733166,-69.5316514649894,-69.6669671128038,-69.805224405136,-69.8728822290432,-69.8522907174192,-69.7258000031579,-69.5640095546842,-69.4051607507281,-69.316911415197,-69.2610201693606,-69.2433703022543,-69.2286620796658,-69.2345453687012,-69.2551368803252,-69.3051448371261,-69.3875108836219,-69.5081183088478,-69.6375506676268,-69.7610997373704,-69.8140493386891,-69.784632893512,-69.6640254682861,-69.5463596875779,-69.4375188404229,-69.3904525281396,-69.3492695048917,-69.3404445713386,-69.3227947042324,-69.3198530597147,-69.316911415197,-69.3198530597147,-69.316911415197,-69.3198530597147,-69.3286779932678,-69.3404445713386,-69.3639777274802,-69.3757443055511,-69.3904525281396,-69.4051607507281,-69.4139856842812,-69.4139856842812,-69.4228106178343,-69.4198689733166,-69.4169273287989,-69.4110440397635,-69.3904525281396,-69.3669193719979,-69.346327860374,-69.3227947042324,-69.3139697706793,-69.2933782590553,-69.2816116809845,-69.2698451029137,-69.2639618138783,-69.2727867474314,-69.2786700364668,-69.2786700364668,-69.2786700364668,-69.2757283919491,-69.266903458396,-69.2727867474314,-69.2786700364668,-69.3110281261615,-69.3492695048917,-69.4169273287989,-69.5081183088478,-69.6140175114851,-69.6963835579809,-69.734624936711,-69.6875586244278,-69.5846010663081,-69.4581103520468,-69.3639777274802,-69.3022031926084,-69.3051448371261,-69.3022031926084,-69.3227947042324,-69.3257363487501,-69.346327860374,-69.3492695048917,-69.3669193719979,-69.3728026610333,-69.3845692391042,-69.3845692391042,-69.3786859500688,-69.3728026610333,-69.3522111494094,-69.3433862158563,-69.3257363487501,-69.3257363487501,-69.3227947042324,-69.3286779932678,-69.3345612823032,-69.3433862158563,-69.3639777274802,-69.3845692391042,-69.3992774616927,-69.4110440397635,-69.4198689733166,-69.4228106178343,-69.4169273287989,-69.4110440397635,-69.3992774616927,-69.3933941726573,-69.3786859500688,-69.3786859500688,-69.3639777274802,-69.3698610165156,-69.3639777274802,-69.3786859500688,-69.3904525281396,-69.4051607507281,-69.4169273287989,-69.4198689733166,-69.425752262352,-69.4169273287989,-69.4198689733166,-69.4022191062104,-69.396335817175,-69.3816275945865
-69.316911415197,-69.2933782590553,-69.2845533255022,-69.266903458396,-69.266903458396,-69.2933782590553,-69.3227947042324,-69.3904525281396,-69.4787018636707,-69.5934259998612,-69.6846169799101,-69.7405082257465,-69.705208491534,-69.6022509334143,-69.4875267972238,-69.3757443055511,-69.3316196377855,-69.3022031926084,-69.3257363487501,-69.3316196377855,-69.3580944384448,-69.3551527939271,-69.3728026610333,-69.3639777274802,-69.3639777274802,-69.3698610165156,-69.3639777274802,-69.3816275945865,-69.396335817175,-69.4492854184937,-69.5287098204717,-69.6375506676268,-69.7463915147819,-69.8199326277245,-69.8228742722422,-69.7228583586402,-69.5846010663081,-69.4286939068697,-69.3433862158563,-69.2816116809845,-69.2639618138783,-69.2551368803252,-69.2698451029137,-69.2933782590553,-69.3345612823032,-69.4198689733166,-69.5110599533655,-69.6493172456976,-69.7640413818881,-69.8493490729015,-69.8375824948307,-69.7434498702642,-69.5904843553435,-69.4434021294583,-69.3433862158563,-69.2816116809845,-69.2639618138783,-69.2404286577366,-69.2492535912897,-69.2639618138783,-69.3051448371261,-69.3786859500688,-69.475760219153,-69.5993092888966,-69.6993252024986,-69.755216448335,-69.7169750696048,-69.6404923121445,-69.5198848869186,-69.4522270630114,-69.396335817175,-69.3698610165156,-69.3580944384448,-69.346327860374,-69.346327860374,-69.3404445713386,-69.3551527939271,-69.346327860374,-69.3698610165156,-69.3639777274802,-69.3845692391042,-69.3875108836219,-69.3992774616927,-69.4139856842812,-69.4286939068697,-69.4345771959051,-69.446343773976,-69.4551687075291,-69.4551687075291,-69.4551687075291,-69.4492854184937,-69.4286939068697,-69.4139856842812,-69.3875108836219,-69.3786859500688,-69.3580944384448,-69.3522111494094,-69.3345612823032,-69.3257363487501,-69.316911415197,-69.3110281261615,-69.3080864816438,-69.3051448371261,-69.3110281261615,-69.3022031926084,-69.3051448371261,-69.2992615480907,-69.3110281261615,-69.3198530597147,-69.3580944384448,-69.4051607507281,-69.4845851527061,-69.5640095546842,-69.6346090231091,-69.6669671128038,-69.6287257340737,-69.5463596875779,-69.4551687075291,-69.3757443055511,-69.3404445713386,-69.3316196377855,-69.3404445713386,-69.3492695048917,-69.3698610165156,-69.3786859500688,-69.396335817175,-69.4110440397635,-69.4139856842812,-69.4169273287989,-69.4051607507281,-69.4022191062104,-69.3816275945865,-69.3757443055511,-69.3551527939271,-69.3522111494094,-69.3433862158563,-69.3522111494094,-69.3580944384448,-69.3669193719979,-69.3845692391042,-69.3992774616927,-69.4228106178343,-69.4375188404229,-69.4551687075291,-69.4639936410822,-69.4639936410822,-69.4639936410822,-69.446343773976,-69.4345771959051,-69.4081023952458,-69.3992774616927,-69.3845692391042,-69.3875108836219,-69.3845692391042,-69.3933941726573,-69.396335817175,-69.4081023952458,-69.4198689733166,-69.425752262352,-69.4316355513874,-69.4228106178343,-69.4228106178343,-69.4139856842812,-69.4110440397635,-69.396335817175,-69.3845692391042
-69.3198530597147,-69.3139697706793,-69.2992615480907,-69.3139697706793,-69.316911415197,-69.3433862158563,-69.3786859500688,-69.4286939068697,-69.5110599533655,-69.5934259998612,-69.6699087573215,-69.6934419134632,-69.6610838237684,-69.555184621131,-69.4522270630114,-69.3610360829625,-69.3227947042324,-69.3198530597147,-69.3257363487501,-69.3404445713386,-69.3522111494094,-69.3639777274802,-69.3639777274802,-69.3757443055511,-69.3728026610333,-69.3757443055511,-69.3669193719979,-69.3610360829625,-69.3728026610333,-69.3992774616927,-69.4698769301176,-69.555184621131,-69.6434339566622,-69.7022668470163,-69.6963835579809,-69.605192577932,-69.4875267972238,-69.3757443055511,-69.3022031926084,-69.2580785248429,-69.2345453687012,-69.2316037241835,-69.246311946772,-69.2639618138783,-69.3110281261615,-69.3698610165156,-69.4434021294583,-69.5345931095071,-69.6404923121445,-69.705208491534,-69.7081501360517,-69.6434339566622,-69.5375347540248,-69.4345771959051,-69.3551527939271,-69.3198530597147,-69.2874949700199,-69.2786700364668,-69.2727867474314,-69.2904366145376,-69.3139697706793,-69.3669193719979,-69.4404604849406,-69.5287098204717,-69.6022509334143,-69.6316673785914,-69.6081342224497,-69.5316514649894,-69.4581103520468,-69.4139856842812,-69.3816275945865,-69.3522111494094,-69.3286779932678,-69.3139697706793,-69.2992615480907,-69.3051448371261,-69.2992615480907,-69.3051448371261,-69.3051448371261,-69.3139697706793,-69.3257363487501,-69.3404445713386,-69.3522111494094,-69.3610360829625,-69.3875108836219,-69.3816275945865,-69.4022191062104,-69.3933941726573,-69.4022191062104,-69.4051607507281,-69.4110440397635,-69.396335817175,-69.3786859500688,-69.3551527939271,-69.3404445713386,-69.3375029268209,-69.3316196377855,-69.3316196377855,-69.316911415197,-69.316911415197,-69.316911415197,-69.3227947042324,-69.3316196377855,-69.3345612823032,-69.3375029268209,-69.3286779932678,-69.3345612823032,-69.3316196377855,-69.3375029268209,-69.3580944384448,-69.3845692391042,-69.425752262352,-69.4581103520468,-69.4992933752947,-69.5081183088478,-69.4992933752947,-69.446343773976,-69.4051607507281,-69.346327860374,-69.3198530597147,-69.3139697706793,-69.3198530597147,-69.3316196377855,-69.3522111494094,-69.3728026610333,-69.3845692391042,-69.4022191062104,-69.4051607507281,-69.4139856842812,-69.4081023952458,-69.396335817175,-69.3786859500688,-69.3580944384448,-69.3433862158563,-69.3375029268209,-69.3316196377855,-69.3316196377855,-69.3316196377855,-69.3433862158563,-69.3492695048917,-69.3728026610333,-69.3875108836219,-69.4110440397635,-69.4228106178343,-69.4375188404229,-69.4375188404229,-69.4404604849406,-69.4286939068697,-69.4316355513874,-69.4169273287989,-69.4110440397635,-69.3992774616927,-69.396335817175,-69.396335817175,-69.4051607507281,-69.4139856842812,-69.4228106178343,-69.4316355513874,-69.4345771959051,-69.4434021294583,-69.4434021294583,-69.4375188404229,-69.4228106178343,-69.4198689733166,-69.4051607507281,-69.4022191062104
-69.346327860374,-69.3316196377855,-69.3345612823032,-69.346327860374,-69.3580944384448,-69.3933941726573,-69.4081023952458,-69.4581103520468,-69.4992933752947,-69.575776132755,-69.5993092888966,-69.605192577932,-69.5434180430602,-69.4581103520468,-69.3875108836219,-69.3316196377855,-69.3198530597147,-69.3139697706793,-69.3375029268209,-69.346327860374,-69.3786859500688,-69.3845692391042,-69.4051607507281,-69.4110440397635,-69.4139856842812,-69.4139856842812,-69.396335817175,-69.3875108836219,-69.3786859500688,-69.4081023952458,-69.4375188404229,-69.4992933752947,-69.5493013320956,-69.575776132755,-69.5669511992019,-69.5022350198124,-69.4404604849406,-69.3492695048917,-69.2992615480907,-69.2580785248429,-69.2551368803252,-69.246311946772,-69.266903458396,-69.2845533255022,-69.3110281261615,-69.3580944384448,-69.3992774616927,-69.4639936410822,-69.5287098204717,-69.5698928437196,-69.5787177772727,-69.5404763985425,-69.4698769301176,-69.3992774616927,-69.3580944384448,-69.316911415197,-69.3080864816438,-69.2933782590553,-69.2933782590553,-69.2992615480907,-69.3227947042324,-69.3639777274802,-69.4228106178343,-69.4904684417415,-69.5316514649894,-69.5581262656488,-69.5345931095071,-69.5081183088478,-69.4610519965645,-69.4345771959051,-69.4081023952458,-69.3816275945865,-69.3580944384448,-69.3375029268209,-69.3316196377855,-69.3257363487501,-69.3257363487501,-69.3227947042324,-69.3286779932678,-69.3345612823032,-69.3404445713386,-69.3580944384448,-69.3669193719979,-69.3875108836219,-69.3933941726573,-69.3992774616927,-69.3992774616927,-69.4051607507281,-69.4110440397635,-69.4110440397635,-69.4198689733166,-69.3992774616927,-69.396335817175,-69.3728026610333,-69.3728026610333,-69.3551527939271,-69.3522111494094,-69.3375029268209,-69.3345612823032,-69.3286779932678,-69.3316196377855,-69.3433862158563,-69.3433862158563,-69.3551527939271,-69.3492695048917,-69.3522111494094,-69.3433862158563,-69.3433862158563,-69.3492695048917,-69.3610360829625,-69.3786859500688,-69.396335817175,-69.425752262352,-69.4375188404229,-69.4581103520468,-69.4522270630114,-69.4345771959051,-69.4051607507281,-69.3728026610333,-69.3580944384448,-69.3404445713386,-69.3522111494094,-69.3492695048917,-69.3786859500688,-69.3786859500688,-69.4051607507281,-69.4139856842812,-69.4286939068697,-69.4345771959051,-69.4375188404229,-69.4286939068697,-69.4110440397635,-69.4022191062104,-69.3757443055511,-69.3698610165156,-69.3610360829625,-69.3610360829625,-69.3639777274802,-69.3728026610333,-69.3845692391042,-69.3992774616927,-69.4169273287989,-69.425752262352,-69.4345771959051,-69.4316355513874,-69.4316355513874,-69.425752262352,-69.4169273287989,-69.4139856842812,-69.3992774616927,-69.3933941726573,-69.3816275945865,-69.3875108836219,-69.3845692391042,-69.396335817175,-69.4022191062104,-69.4198689733166,-69.4375188404229,-69.4434021294583,-69.4522270630114,-69.4522270630114,-69.4492854184937,-69.4404604849406,-69.4345771959051,-69.4198689733166,-69.4110440397635
-69.346327860374,-69.3551527939271,-69.3816275945865,-69.4198689733166,-69.4581103520468,-69.496351730777,-69.5434180430602,-69.5728344882373,-69.6110758669674,-69.625784089556,-69.625784089556,-69.5698928437196,-69.4904684417415,-69.4022191062104,-69.3404445713386,-69.3022031926084,-69.3022031926084,-69.3198530597147,-69.3404445713386,-69.3669193719979,-69.396335817175,-69.4169273287989,-69.4404604849406,-69.4434021294583,-69.4522270630114,-69.4434021294583,-69.4404604849406,-69.4198689733166,-69.4169273287989,-69.4022191062104,-69.4110440397635,-69.4169273287989,-69.4316355513874,-69.4345771959051,-69.4139856842812,-69.3904525281396,-69.3522111494094,-69.3198530597147,-69.2845533255022,-69.2698451029137,-69.2492535912897,-69.2551368803252,-69.2610201693606,-69.2757283919491,-69.2992615480907,-69.3257363487501,-69.3580944384448,-69.4022191062104,-69.4492854184937,-69.475760219153,-69.4875267972238,-69.4698769301176,-69.4345771959051,-69.3992774616927,-69.3669193719979,-69.3492695048917,-69.3345612823032,-69.3286779932678,-69.3227947042324,-69.3286779932678,-69.3345612823032,-69.3610360829625,-69.396335817175,-69.4316355513874,-69.4698769301176,-69.4845851527061,-69.4845851527061,-69.4639936410822,-69.4522270630114,-69.4286939068697,-69.4139856842812,-69.3845692391042,-69.3669193719979,-69.3492695048917,-69.346327860374,-69.346327860374,-69.3433862158563,-69.3345612823032,-69.3345612823032,-69.3345612823032,-69.3345612823032,-69.3433862158563,-69.346327860374,-69.3551527939271,-69.3669193719979,-69.3698610165156,-69.3757443055511,-69.3757443055511,-69.3757443055511,-69.3875108836219,-69.3992774616927,-69.4051607507281,-69.4022191062104,-69.3904525281396,-69.3845692391042,-69.3875108836219,-69.3845692391042,-69.3786859500688,-69.3757443055511,-69.3698610165156,-69.3728026610333,-69.3786859500688,-69.3786859500688,-69.3845692391042,-69.3816275945865,-69.3816275945865,-69.3698610165156,-69.3610360829625,-69.3492695048917,-69.3551527939271,-69.3580944384448,-69.3757443055511,-69.3875108836219,-69.4022191062104,-69.4316355513874,-69.4551687075291,-69.4728185746353,-69.4610519965645,-69.4345771959051,-69.3875108836219,-69.3698610165156,-69.3551527939271,-69.3757443055511,-69.3845692391042,-69.4022191062104,-69.4081023952458,-69.4169273287989,-69.4139856842812,-69.4228106178343,-69.4228106178343,-69.4169273287989,-69.4081023952458,-69.396335817175,-69.3816275945865,-69.3728026610333,-69.3728026610333,-69.3875108836219,-69.3904525281396,-69.3992774616927,-69.4081023952458,-69.4169273287989,-69.4316355513874,-69.4492854184937,-69.4610519965645,-69.4581103520468,-69.446343773976,-69.4316355513874,-69.4228106178343,-69.4110440397635,-69.4110440397635,-69.4081023952458,-69.3992774616927,-69.3875108836219,-69.3904525281396,-69.396335817175,-69.4110440397635,-69.4286939068697,-69.4404604849406,-69.446343773976,-69.446343773976,-69.4581103520468,-69.4581103520468,-69.4581103520468,-69.4522270630114,-69.4492854184937,-69.4286939068697
-69.3904525281396,-69.3992774616927,-69.4581103520468,-69.5140015978832,-69.5846010663081,-69.6522588902153,-69.6993252024986,-69.734624936711,-69.7434498702642,-69.7463915147819,-69.6905002689455,-69.5993092888966,-69.475760219153,-69.3728026610333,-69.3080864816438,-69.2757283919491,-69.2845533255022,-69.296319903573,-69.3257363487501,-69.3551527939271,-69.3875108836219,-69.4081023952458,-69.4345771959051,-69.4522270630114,-69.4551687075291,-69.4610519965645,-69.4404604849406,-69.4375188404229,-69.4081023952458,-69.4051607507281,-69.3904525281396,-69.3904525281396,-69.3875108836219,-69.3904525281396,-69.3786859500688,-69.3580944384448,-69.3433862158563,-69.3110281261615,-69.296319903573,-69.2816116809845,-69.2727867474314,-69.2757283919491,-69.2757283919491,-69.2845533255022,-69.2904366145376,-69.3198530597147,-69.3286779932678,-69.3669193719979,-69.3904525281396,-69.4228106178343,-69.4316355513874,-69.4316355513874,-69.4228106178343,-69.4081023952458,-69.3992774616927,-69.3786859500688,-69.3786859500688,-69.3610360829625,-69.3639777274802,-69.3580944384448,-69.3669193719979,-69.3816275945865,-69.396335817175,-69.425752262352,-69.4375188404229,-69.4551687075291,-69.4434021294583,-69.446343773976,-69.4316355513874,-69.4228106178343,-69.4051607507281,-69.3845692391042,-69.3728026610333,-69.3522111494094,-69.3639777274802,-69.3551527939271,-69.3698610165156,-69.3610360829625,-69.3728026610333,-69.3610360829625,-69.3698610165156,-69.3639777274802,-69.3639777274802,-69.3669193719979,-69.3669193719979,-69.3698610165156,-69.3698610165156,-69.3728026610333,-69.3816275945865,-69.3875108836219,-69.3992774616927,-69.396335817175,-69.4051607507281,-69.396335817175,-69.4228106178343,-69.4139856842812,-69.4316355513874,-69.4228106178343,-69.4316355513874,-69.425752262352,-69.4375188404229,-69.4434021294583,-69.4492854184937,-69.4522270630114,-69.4404604849406,-69.4375188404229,-69.4198689733166,-69.4110440397635,-69.3933941726573,-69.3845692391042,-69.3669193719979,-69.3669193719979,-69.3698610165156,-69.3992774616927,-69.446343773976,-69.496351730777,-69.5316514649894,-69.5434180430602,-69.5140015978832,-69.4698769301176,-69.4139856842812,-69.3904525281396,-69.3757443055511,-69.3904525281396,-69.3904525281396,-69.4110440397635,-69.4198689733166,-69.4286939068697,-69.4345771959051,-69.4345771959051,-69.4228106178343,-69.4139856842812,-69.4022191062104,-69.3933941726573,-69.3845692391042,-69.3757443055511,-69.3728026610333,-69.3786859500688,-69.3845692391042,-69.4022191062104,-69.4139856842812,-69.4286939068697,-69.4404604849406,-69.4434021294583,-69.446343773976,-69.4375188404229,-69.4316355513874,-69.4198689733166,-69.4169273287989,-69.3992774616927,-69.3933941726573,-69.3845692391042,-69.3816275945865,-69.3816275945865,-69.3816275945865,-69.3816275945865,-69.3845692391042,-69.3992774616927,-69.4022191062104,-69.4169273287989,-69.4228106178343,-69.425752262352,-69.425752262352,-69.4286939068697,-69.425752262352,-69.4198689733166
-69.4198689733166,-69.4728185746353,-69.5316514649894,-69.6404923121445,-69.7258000031579,-69.8081660496537,-69.884648807114,-69.8993570297025,-69.914065252291,-69.8640572954901,-69.7993411161005,-69.655200534733,-69.5287098204717,-69.3904525281396,-69.3345612823032,-69.2992615480907,-69.3051448371261,-69.3198530597147,-69.3433862158563,-69.3728026610333,-69.4110440397635,-69.4404604849406,-69.4639936410822,-69.4816435081884,-69.4787018636707,-69.4639936410822,-69.4492854184937,-69.4169273287989,-69.4022191062104,-69.3698610165156,-69.3551527939271,-69.3375029268209,-69.3316196377855,-69.316911415197,-69.3110281261615,-69.3051448371261,-69.2904366145376,-69.2992615480907,-69.2874949700199,-69.3022031926084,-69.296319903573,-69.3051448371261,-69.296319903573,-69.2992615480907,-69.2874949700199,-69.2904366145376,-69.2933782590553,-69.2992615480907,-69.3257363487501,-69.3404445713386,-69.3580944384448,-69.3669193719979,-69.3728026610333,-69.3669193719979,-69.3669193719979,-69.3698610165156,-69.3669193719979,-69.3728026610333,-69.3728026610333,-69.3786859500688,-69.3845692391042,-69.3933941726573,-69.4139856842812,-69.4228106178343,-69.446343773976,-69.4375188404229,-69.4434021294583,-69.4198689733166,-69.4169273287989,-69.396335817175,-69.3933941726573,-69.3698610165156,-69.3551527939271,-69.3433862158563,-69.3404445713386,-69.3522111494094,-69.3669193719979,-69.3816275945865,-69.3904525281396,-69.396335817175,-69.3875108836219,-69.3698610165156,-69.3551527939271,-69.3345612823032,-69.3375029268209,-69.3198530597147,-69.3257363487501,-69.3227947042324,-69.3286779932678,-69.3404445713386,-69.3551527939271,-69.3639777274802,-69.3639777274802,-69.3728026610333,-69.3698610165156,-69.396335817175,-69.3992774616927,-69.4110440397635,-69.4110440397635,-69.4169273287989,-69.4316355513874,-69.4375188404229,-69.4551687075291,-69.4522270630114,-69.4639936410822,-69.446343773976,-69.446343773976,-69.425752262352,-69.4198689733166,-69.4081023952458,-69.4022191062104,-69.396335817175,-69.4081023952458,-69.4375188404229,-69.496351730777,-69.5816594217904,-69.6434339566622,-69.6669671128038,-69.6316673785914,-69.5522429766133,-69.475760219153,-69.4081023952458,-69.3875108836219,-69.3757443055511,-69.3992774616927,-69.396335817175,-69.425752262352,-69.4286939068697,-69.4434021294583,-69.4434021294583,-69.4434021294583,-69.4286939068697,-69.4198689733166,-69.4051607507281,-69.3992774616927,-69.3992774616927,-69.396335817175,-69.396335817175,-69.4022191062104,-69.4022191062104,-69.4139856842812,-69.4139856842812,-69.4139856842812,-69.4110440397635,-69.4081023952458,-69.396335817175,-69.3933941726573,-69.3816275945865,-69.3757443055511,-69.3698610165156,-69.3580944384448,-69.3580944384448,-69.3522111494094,-69.3610360829625,-69.3728026610333,-69.3875108836219,-69.396335817175,-69.4110440397635,-69.4198689733166,-69.4316355513874,-69.4375188404229,-69.4404604849406,-69.4404604849406,-69.4375188404229,-69.4345771959051,-69.4345771959051
-69.4404604849406,-69.5022350198124,-69.575776132755,-69.7022668470163,-69.8081660496537,-69.9111236077733,-69.9934896542691,-70.014081165893,-70.014081165893,-69.9493649865035,-69.8434657838661,-69.6787336908747,-69.5228265314363,-69.3728026610333,-69.3110281261615,-69.2816116809845,-69.2933782590553,-69.3139697706793,-69.3522111494094,-69.3845692391042,-69.425752262352,-69.4610519965645,-69.4904684417415,-69.5081183088478,-69.5051766643301,-69.4875267972238,-69.4698769301176,-69.4345771959051,-69.4081023952458,-69.3698610165156,-69.346327860374,-69.3198530597147,-69.3110281261615,-69.2992615480907,-69.2933782590553,-69.2933782590553,-69.2933782590553,-69.3139697706793,-69.3257363487501,-69.3522111494094,-69.3610360829625,-69.3786859500688,-69.3639777274802,-69.3522111494094,-69.3227947042324,-69.3051448371261,-69.2904366145376,-69.2992615480907,-69.3110281261615,-69.3227947042324,-69.3316196377855,-69.3492695048917,-69.3522111494094,-69.3610360829625,-69.3610360829625,-69.3698610165156,-69.3610360829625,-69.3757443055511,-69.3728026610333,-69.3875108836219,-69.3904525281396,-69.4022191062104,-69.4169273287989,-69.425752262352,-69.4404604849406,-69.4345771959051,-69.4345771959051,-69.4198689733166,-69.4228106178343,-69.4051607507281,-69.4022191062104,-69.3845692391042,-69.3757443055511,-69.3698610165156,-69.3698610165156,-69.3875108836219,-69.4110440397635,-69.4404604849406,-69.4639936410822,-69.4787018636707,-69.4639936410822,-69.4316355513874,-69.3904525281396,-69.3492695048917,-69.3316196377855,-69.3110281261615,-69.3110281261615,-69.3139697706793,-69.3286779932678,-69.3433862158563,-69.3610360829625,-69.3728026610333,-69.3757443055511,-69.3933941726573,-69.396335817175,-69.4198689733166,-69.4198689733166,-69.4316355513874,-69.425752262352,-69.4375188404229,-69.4434021294583,-69.4639936410822,-69.4698769301176,-69.4698769301176,-69.4698769301176,-69.4610519965645,-69.4492854184937,-69.4316355513874,-69.4169273287989,-69.4051607507281,-69.3933941726573,-69.3875108836219,-69.4081023952458,-69.4551687075291,-69.5316514649894,-69.6434339566622,-69.7316832921933,-69.7699246709235,-69.7287416476756,-69.6228424450383,-69.5051766643301,-69.4198689733166,-69.3786859500688,-69.3639777274802,-69.3728026610333,-69.3757443055511,-69.3992774616927,-69.4051607507281,-69.4198689733166,-69.4228106178343,-69.4316355513874,-69.4198689733166,-69.4228106178343,-69.4139856842812,-69.4110440397635,-69.4110440397635,-69.4139856842812,-69.4139856842812,-69.4139856842812,-69.4139856842812,-69.4169273287989,-69.4169273287989,-69.4139856842812,-69.4081023952458,-69.396335817175,-69.3845692391042,-69.3728026610333,-69.3639777274802,-69.3522111494094,-69.3492695048917,-69.3404445713386,-69.3375029268209,-69.3316196377855,-69.3375029268209,-69.3375029268209,-69.3522111494094,-69.3580944384448,-69.3698610165156,-69.3728026610333,-69.3786859500688,-69.3845692391042,-69.3933941726573,-69.396335817175,-69.4051607507281,-69.3992774616927,-69.4051607507281
-69.4404604849406,-69.4639936410822,-69.5522429766133,-69.6375506676268,-69.7405082257465,-69.8611156509724,-69.9170068968087,-69.9317151193973,-69.9022986742202,-69.834640850313,-69.7169750696048,-69.5904843553435,-69.4434021294583,-69.3433862158563,-69.2874949700199,-69.2551368803252,-69.2816116809845,-69.2992615480907,-69.346327860374,-69.3786859500688,-69.4316355513874,-69.446343773976,-69.4904684417415,-69.4934100862592,-69.5051766643301,-69.4904684417415,-69.475760219153,-69.4492854184937,-69.4110440397635,-69.3757443055511,-69.346327860374,-69.3227947042324,-69.2992615480907,-69.2874949700199,-69.2874949700199,-69.2816116809845,-69.3110281261615,-69.3286779932678,-69.3728026610333,-69.4081023952458,-69.446343773976,-69.4610519965645,-69.4551687075291,-69.4228106178343,-69.3698610165156,-69.3345612823032,-69.296319903573,-69.3022031926084,-69.3022031926084,-69.3139697706793,-69.3227947042324,-69.3345612823032,-69.3433862158563,-69.3551527939271,-69.3669193719979,-69.3757443055511,-69.3933941726573,-69.396335817175,-69.3992774616927,-69.396335817175,-69.396335817175,-69.4110440397635,-69.4198689733166,-69.4345771959051,-69.4316355513874,-69.4345771959051,-69.4228106178343,-69.4228106178343,-69.4139856842812,-69.4081023952458,-69.396335817175,-69.3757443055511,-69.3786859500688,-69.3728026610333,-69.3992774616927,-69.4169273287989,-69.4728185746353,-69.5140015978832,-69.5640095546842,-69.575776132755,-69.555184621131,-69.4992933752947,-69.4228106178343,-69.3580944384448,-69.3080864816438,-69.2757283919491,-69.2698451029137,-69.2727867474314,-69.2933782590553,-69.3080864816438,-69.3286779932678,-69.3375029268209,-69.3728026610333,-69.3875108836219,-69.4228106178343,-69.4228106178343,-69.4375188404229,-69.4345771959051,-69.4375188404229,-69.4404604849406,-69.4434021294583,-69.4581103520468,-69.4639936410822,-69.4728185746353,-69.4551687075291,-69.4522270630114,-69.4345771959051,-69.425752262352,-69.4110440397635,-69.3933941726573,-69.3728026610333,-69.3698610165156,-69.3933941726573,-69.4492854184937,-69.5463596875779,-69.6375506676268,-69.734624936711,-69.7787496044766,-69.7228583586402,-69.6169591560028,-69.4875267972238,-69.396335817175,-69.3551527939271,-69.3433862158563,-69.3345612823032,-69.3345612823032,-69.3404445713386,-69.3492695048917,-69.3639777274802,-69.3639777274802,-69.3669193719979,-69.3580944384448,-69.3639777274802,-69.3698610165156,-69.3728026610333,-69.3669193719979,-69.3698610165156,-69.3728026610333,-69.3728026610333,-69.3786859500688,-69.3728026610333,-69.3786859500688,-69.3816275945865,-69.3786859500688,-69.3610360829625,-69.3433862158563,-69.3257363487501,-69.3257363487501,-69.316911415197,-69.3110281261615,-69.3080864816438,-69.3051448371261,-69.3022031926084,-69.3198530597147,-69.3227947042324,-69.3286779932678,-69.3286779932678,-69.3404445713386,-69.3433862158563,-69.3639777274802,-69.3698610165156,-69.3845692391042,-69.3875108836219,-69.3933941726573,-69.3933941726573,-69.3875108836219
-69.4228106178343,-69.4610519965645,-69.5110599533655,-69.5904843553435,-69.6610838237684,-69.7316832921933,-69.7875745380297,-69.7905161825474,-69.7669830264058,-69.7022668470163,-69.6081342224497,-69.496351730777,-69.4051607507281,-69.3257363487501,-69.2904366145376,-69.2727867474314,-69.2786700364668,-69.3051448371261,-69.3345612823032,-69.3728026610333,-69.4139856842812,-69.446343773976,-69.4639936410822,-69.4787018636707,-69.4787018636707,-69.4669352855999,-69.4581103520468,-69.4198689733166,-69.3933941726573,-69.3522111494094,-69.3257363487501,-69.2992615480907,-69.2933782590553,-69.2816116809845,-69.2904366145376,-69.296319903573,-69.3286779932678,-69.3757443055511,-69.4375188404229,-69.5228265314363,-69.5904843553435,-69.6199008005206,-69.5963676443789,-69.525768175954,-69.4375188404229,-69.3610360829625,-69.3227947042324,-69.2992615480907,-69.3080864816438,-69.3051448371261,-69.3257363487501,-69.3316196377855,-69.3522111494094,-69.3639777274802,-69.3875108836219,-69.3933941726573,-69.4081023952458,-69.4169273287989,-69.425752262352,-69.4345771959051,-69.4316355513874,-69.4316355513874,-69.4286939068697,-69.425752262352,-69.425752262352,-69.4169273287989,-69.4081023952458,-69.3933941726573,-69.3875108836219,-69.3698610165156,-69.3757443055511,-69.3580944384448,-69.3580944384448,-69.3639777274802,-69.3933941726573,-69.4404604849406,-69.5198848869186,-69.5963676443789,-69.6757920463569,-69.7169750696048,-69.6875586244278,-69.5934259998612,-69.4669352855999,-69.3698610165156,-69.3080864816438,-69.2698451029137,-69.2610201693606,-69.266903458396,-69.2786700364668,-69.3022031926084,-69.3345612823032,-69.3492695048917,-69.3757443055511,-69.396335817175,-69.4139856842812,-69.425752262352,-69.4286939068697,-69.4228106178343,-69.4286939068697,-69.4345771959051,-69.4434021294583,-69.4581103520468,-69.4551687075291,-69.4728185746353,-69.4728185746353,-69.4698769301176,-69.4581103520468,-69.4434021294583,-69.4228106178343,-69.4081023952458,-69.3845692391042,-69.3698610165156,-69.3816275945865,-69.4228106178343,-69.496351730777,-69.5963676443789,-69.6640254682861,-69.6963835579809,-69.6610838237684,-69.5669511992019,-69.4581103520468,-69.3728026610333,-69.3227947042324,-69.3139697706793,-69.3257363487501,-69.3316196377855,-69.3522111494094,-69.3580944384448,-69.3728026610333,-69.3786859500688,-69.3816275945865,-69.3728026610333,-69.3786859500688,-69.3757443055511,-69.3904525281396,-69.3904525281396,-69.3933941726573,-69.3845692391042,-69.3933941726573,-69.3875108836219,-69.3933941726573,-69.3845692391042,-69.3845692391042,-69.3698610165156,-69.3757443055511,-69.3639777274802,-69.3639777274802,-69.3492695048917,-69.346327860374,-69.3404445713386,-69.3404445713386,-69.3404445713386,-69.3433862158563,-69.3492695048917,-69.3551527939271,-69.3610360829625,-69.3580944384448,-69.3551527939271,-69.3551527939271,-69.3698610165156,-69.3786859500688,-69.3845692391042,-69.3875108836219,-69.3933941726573,-69.4022191062104,-69.4139856842812
-69.3816275945865,-69.3845692391042,-69.4110440397635,-69.4316355513874,-69.4639936410822,-69.525768175954,-69.5316514649894,-69.5434180430602,-69.5140015978832,-69.4787018636707,-69.4286939068697,-69.3904525281396,-69.3316196377855,-69.3080864816438,-69.296319903573,-69.2816116809845,-69.3051448371261,-69.3110281261615,-69.3492695048917,-69.3875108836219,-69.4228106178343,-69.446343773976,-69.4698769301176,-69.4698769301176,-69.4669352855999,-69.4639936410822,-69.4375188404229,-69.4139856842812,-69.3698610165156,-69.3404445713386,-69.3139697706793,-69.2904366145376,-69.2904366145376,-69.2845533255022,-69.3022031926084,-69.3080864816438,-69.3580944384448,-69.3933941726573,-69.496351730777,-69.5963676443789,-69.7110917805694,-69.7787496044766,-69.7669830264058,-69.6787336908747,-69.5345931095071,-69.4228106178343,-69.3375029268209,-69.3139697706793,-69.296319903573,-69.3080864816438,-69.3198530597147,-69.3345612823032,-69.3551527939271,-69.3639777274802,-69.3904525281396,-69.3992774616927,-69.4198689733166,-69.425752262352,-69.4375188404229,-69.4492854184937,-69.4522270630114,-69.4728185746353,-69.4639936410822,-69.475760219153,-69.4610519965645,-69.4639936410822,-69.446343773976,-69.4404604849406,-69.4286939068697,-69.4169273287989,-69.4110440397635,-69.396335817175,-69.4051607507281,-69.3992774616927,-69.4404604849406,-69.4816435081884,-69.5669511992019,-69.6669671128038,-69.7669830264058,-69.8169909832068,-69.7875745380297,-69.6816753353924,-69.5316514649894,-69.396335817175,-69.2992615480907,-69.2639618138783,-69.2521952358074,-69.2492535912897,-69.2698451029137,-69.296319903573,-69.3345612823032,-69.3698610165156,-69.4169273287989,-69.4345771959051,-69.446343773976,-69.4286939068697,-69.4110440397635,-69.3904525281396,-69.3816275945865,-69.3904525281396,-69.396335817175,-69.4081023952458,-69.4139856842812,-69.4169273287989,-69.4110440397635,-69.4198689733166,-69.4110440397635,-69.4081023952458,-69.4051607507281,-69.3816275945865,-69.3728026610333,-69.3610360829625,-69.3698610165156,-69.4081023952458,-69.4551687075291,-69.5081183088478,-69.5669511992019,-69.5846010663081,-69.5522429766133,-69.5051766643301,-69.4228106178343,-69.3669193719979,-69.3286779932678,-69.3080864816438,-69.3080864816438,-69.3227947042324,-69.346327860374,-69.3669193719979,-69.3933941726573,-69.3933941726573,-69.4022191062104,-69.3904525281396,-69.3933941726573,-69.3933941726573,-69.396335817175,-69.3992774616927,-69.4051607507281,-69.4051607507281,-69.4051607507281,-69.4051607507281,-69.3992774616927,-69.3904525281396,-69.3816275945865,-69.3610360829625,-69.3639777274802,-69.3492695048917,-69.3551527939271,-69.346327860374,-69.3580944384448,-69.3522111494094,-69.3610360829625,-69.3551527939271,-69.3580944384448,-69.3610360829625,-69.3551527939271,-69.3639777274802,-69.3551527939271,-69.3728026610333,-69.3728026610333,-69.3904525281396,-69.3875108836219,-69.4022191062104,-69.4022191062104,-69.4110440397635,-69.4198689733166,-69.4286939068697
-69.3786859500688,-69.3816275945865,-69.3757443055511,-69.3992774616927,-69.396335817175,-69.4169273287989,-69.4286939068697,-69.4286939068697,-69.4228106178343,-69.4051607507281,-69.3816275945865,-69.346327860374,-69.3375029268209,-69.3051448371261,-69.3080864816438,-69.3051448371261,-69.3227947042324,-69.3492695048917,-69.3786859500688,-69.4081023952458,-69.4375188404229,-69.4610519965645,-69.4787018636707,-69.4904684417415,-69.4875267972238,-69.4728185746353,-69.4551687075291,-69.4228106178343,-69.3933941726573,-69.3580944384448,-69.3316196377855,-69.3080864816438,-69.3022031926084,-69.3022031926084,-69.3110281261615,-69.3316196377855,-69.3757443055511,-69.4522270630114,-69.5493013320956,-69.6963835579809,-69.805224405136,-69.8787655180786,-69.8640572954901,-69.7640413818881,-69.6140175114851,-69.475760219153,-69.3875108836219,-69.346327860374,-69.3345612823032,-69.3345612823032,-69.3492695048917,-69.3610360829625,-69.3698610165156,-69.3875108836219,-69.3933941726573,-69.4139856842812,-69.425752262352,-69.4434021294583,-69.4492854184937,-69.4492854184937,-69.4434021294583,-69.4375188404229,-69.4316355513874,-69.4228106178343,-69.4286939068697,-69.4051607507281,-69.3904525281396,-69.3639777274802,-69.3580944384448,-69.346327860374,-69.3522111494094,-69.3433862158563,-69.3492695048917,-69.3522111494094,-69.3816275945865,-69.4492854184937,-69.525768175954,-69.6463756011799,-69.7728663154412,-69.8581740064546,-69.8522907174192,-69.7316832921933,-69.555184621131,-69.3757443055511,-69.2816116809845,-69.2286620796658,-69.2257204351481,-69.216895501595,-69.2404286577366,-69.296319903573,-69.3580944384448,-69.4345771959051,-69.496351730777,-69.5404763985425,-69.525768175954,-69.5022350198124,-69.4345771959051,-69.3992774616927,-69.3580944384448,-69.3522111494094,-69.3492695048917,-69.3551527939271,-69.3610360829625,-69.3669193719979,-69.3698610165156,-69.3698610165156,-69.3698610165156,-69.3551527939271,-69.3522111494094,-69.3522111494094,-69.3433862158563,-69.3522111494094,-69.346327860374,-69.3610360829625,-69.3816275945865,-69.4228106178343,-69.4434021294583,-69.4581103520468,-69.4375188404229,-69.4081023952458,-69.3728026610333,-69.3345612823032,-69.3316196377855,-69.3139697706793,-69.3257363487501,-69.3286779932678,-69.3669193719979,-69.3875108836219,-69.4286939068697,-69.4404604849406,-69.4492854184937,-69.4375188404229,-69.4286939068697,-69.4228106178343,-69.4198689733166,-69.4228106178343,-69.4345771959051,-69.4404604849406,-69.446343773976,-69.446343773976,-69.4492854184937,-69.4375188404229,-69.4286939068697,-69.4110440397635,-69.3992774616927,-69.3904525281396,-69.3845692391042,-69.3875108836219,-69.396335817175,-69.4139856842812,-69.4198689733166,-69.4316355513874,-69.4169273287989,-69.4110440397635,-69.3904525281396,-69.3816275945865,-69.3728026610333,-69.3786859500688,-69.3816275945865,-69.3992774616927,-69.4022191062104,-69.4110440397635,-69.4081023952458,-69.4139856842812,-69.4169273287989,-69.4286939068697
-69.3492695048917,-69.3286779932678,-69.3257363487501,-69.316911415197,-69.316911415197,-69.3404445713386,-69.3375029268209,-69.3492695048917,-69.3492695048917,-69.3669193719979,-69.3551527939271,-69.3610360829625,-69.3375029268209,-69.3227947042324,-69.3139697706793,-69.3051448371261,-69.3257363487501,-69.3316196377855,-69.3669193719979,-69.3845692391042,-69.4169273287989,-69.425752262352,-69.4434021294583,-69.446343773976,-69.4492854184937,-69.446343773976,-69.4228106178343,-69.3992774616927,-69.3669193719979,-69.3522111494094,-69.3316196377855,-69.3227947042324,-69.3139697706793,-69.3139697706793,-69.3257363487501,-69.3404445713386,-69.3933941726573,-69.4434021294583,-69.5493013320956,-69.6610838237684,-69.7787496044766,-69.8434657838661,-69.8405241393484,-69.7434498702642,-69.6022509334143,-69.4787018636707,-69.3816275945865,-69.3522111494094,-69.3375029268209,-69.3522111494094,-69.3610360829625,-69.3816275945865,-69.3933941726573,-69.4081023952458,-69.425752262352,-69.4404604849406,-69.4551687075291,-69.4610519965645,-69.4639936410822,-69.4610519965645,-69.446343773976,-69.4434021294583,-69.4286939068697,-69.4198689733166,-69.4022191062104,-69.396335817175,-69.3728026610333,-69.3698610165156,-69.3522111494094,-69.3551527939271,-69.346327860374,-69.3492695048917,-69.3551527939271,-69.3698610165156,-69.4051607507281,-69.4698769301176,-69.5640095546842,-69.6905002689455,-69.8493490729015,-69.9464233419858,-69.9405400529504,-69.8022827606183,-69.5934259998612,-69.4081023952458,-69.2933782590553,-69.2374870132189,-69.2345453687012,-69.2433703022543,-69.2757283919491,-69.3227947042324,-69.4110440397635,-69.496351730777,-69.6022509334143,-69.6404923121445,-69.6434339566622,-69.5698928437196,-69.496351730777,-69.4198689733166,-69.3786859500688,-69.3639777274802,-69.3669193719979,-69.3757443055511,-69.3757443055511,-69.3875108836219,-69.3875108836219,-69.396335817175,-69.3933941726573,-69.3904525281396,-69.3816275945865,-69.3698610165156,-69.3551527939271,-69.3522111494094,-69.3551527939271,-69.3610360829625,-69.3786859500688,-69.3992774616927,-69.4081023952458,-69.4198689733166,-69.3992774616927,-69.3904525281396,-69.3580944384448,-69.346327860374,-69.3198530597147,-69.3375029268209,-69.3375029268209,-69.3757443055511,-69.4081023952458,-69.4522270630114,-69.4845851527061,-69.4992933752947,-69.496351730777,-69.4610519965645,-69.4404604849406,-69.4198689733166,-69.4198689733166,-69.4139856842812,-69.4228106178343,-69.4228106178343,-69.4228106178343,-69.425752262352,-69.4228106178343,-69.4198689733166,-69.4110440397635,-69.4022191062104,-69.3933941726573,-69.3875108836219,-69.3933941726573,-69.3992774616927,-69.4286939068697,-69.4551687075291,-69.4904684417415,-69.5022350198124,-69.4934100862592,-69.4581103520468,-69.4198689733166,-69.3845692391042,-69.3669193719979,-69.3639777274802,-69.3551527939271,-69.3698610165156,-69.3728026610333,-69.3904525281396,-69.396335817175,-69.4081023952458,-69.4110440397635,-69.425752262352
-69.3375029268209,-69.316911415197,-69.2933782590553,-69.2933782590553,-69.2786700364668,-69.2933782590553,-69.316911415197,-69.3345612823032,-69.3639777274802,-69.3845692391042,-69.4081023952458,-69.4051607507281,-69.4022191062104,-69.3728026610333,-69.3580944384448,-69.3375029268209,-69.3404445713386,-69.3551527939271,-69.3698610165156,-69.3786859500688,-69.3904525281396,-69.3992774616927,-69.3992774616927,-69.4051607507281,-69.396335817175,-69.3875108836219,-69.3816275945865,-69.3522111494094,-69.3375029268209,-69.3110281261615,-69.3080864816438,-69.3022031926084,-69.3080864816438,-69.3051448371261,-69.3139697706793,-69.3316196377855,-69.3669193719979,-69.4316355513874,-69.5022350198124,-69.5963676443789,-69.6728504018392,-69.7199167141225,-69.7199167141225,-69.655200534733,-69.5493013320956,-69.4581103520468,-69.3992774616927,-69.3580944384448,-69.3610360829625,-69.3580944384448,-69.3845692391042,-69.3933941726573,-69.4139856842812,-69.4198689733166,-69.4316355513874,-69.4434021294583,-69.4581103520468,-69.475760219153,-69.4787018636707,-69.4845851527061,-69.4698769301176,-69.4581103520468,-69.446343773976,-69.4316355513874,-69.4198689733166,-69.3992774616927,-69.3816275945865,-69.3610360829625,-69.3551527939271,-69.3404445713386,-69.3404445713386,-69.3286779932678,-69.3345612823032,-69.3433862158563,-69.3669193719979,-69.425752262352,-69.5169432424009,-69.6610838237684,-69.8140493386891,-69.9405400529504,-69.9434816974681,-69.8199326277245,-69.6081342224497,-69.4081023952458,-69.2933782590553,-69.2345453687012,-69.2286620796658,-69.2433703022543,-69.2904366145376,-69.346327860374,-69.4522270630114,-69.555184621131,-69.6640254682861,-69.7228583586402,-69.7022668470163,-69.6140175114851,-69.496351730777,-69.3992774616927,-69.3286779932678,-69.3022031926084,-69.3022031926084,-69.3139697706793,-69.3198530597147,-69.3345612823032,-69.3492695048917,-69.3433862158563,-69.3551527939271,-69.3522111494094,-69.3551527939271,-69.3492695048917,-69.3492695048917,-69.3404445713386,-69.3404445713386,-69.3404445713386,-69.346327860374,-69.3580944384448,-69.3551527939271,-69.3610360829625,-69.3522111494094,-69.3345612823032,-69.3198530597147,-69.3110281261615,-69.3051448371261,-69.3110281261615,-69.3316196377855,-69.3669193719979,-69.4375188404229,-69.5110599533655,-69.575776132755,-69.605192577932,-69.5904843553435,-69.5375347540248,-69.4728185746353,-69.4198689733166,-69.3933941726573,-69.3816275945865,-69.3816275945865,-69.3875108836219,-69.3875108836219,-69.3816275945865,-69.3845692391042,-69.3669193719979,-69.3669193719979,-69.3551527939271,-69.3610360829625,-69.3580944384448,-69.3816275945865,-69.4081023952458,-69.4581103520468,-69.5228265314363,-69.5816594217904,-69.6140175114851,-69.5993092888966,-69.5463596875779,-69.475760219153,-69.4139856842812,-69.3757443055511,-69.3580944384448,-69.3580944384448,-69.3610360829625,-69.3728026610333,-69.3669193719979,-69.3816275945865,-69.3816275945865,-69.3992774616927,-69.4022191062104
-69.2904366145376,-69.2521952358074,-69.2345453687012,-69.2227787906304,-69.2139538570773,-69.2404286577366,-69.2551368803252,-69.3139697706793,-69.3610360829625,-69.4404604849406,-69.4698769301176,-69.4934100862592,-69.4639936410822,-69.4198689733166,-69.3698610165156,-69.3286779932678,-69.316911415197,-69.3080864816438,-69.3286779932678,-69.3345612823032,-69.3551527939271,-69.346327860374,-69.3551527939271,-69.3610360829625,-69.3580944384448,-69.3669193719979,-69.3522111494094,-69.3492695048917,-69.3227947042324,-69.316911415197,-69.2933782590553,-69.2874949700199,-69.2874949700199,-69.2874949700199,-69.2992615480907,-69.3080864816438,-69.3433862158563,-69.3757443055511,-69.4316355513874,-69.4904684417415,-69.5434180430602,-69.5698928437196,-69.5610679101665,-69.5316514649894,-69.475760219153,-69.4375188404229,-69.3845692391042,-69.3757443055511,-69.3551527939271,-69.3610360829625,-69.3669193719979,-69.3786859500688,-69.3933941726573,-69.4022191062104,-69.4198689733166,-69.4139856842812,-69.4316355513874,-69.4316355513874,-69.4404604849406,-69.4286939068697,-69.4228106178343,-69.4139856842812,-69.3992774616927,-69.4051607507281,-69.3875108836219,-69.3875108836219,-69.3610360829625,-69.3610360829625,-69.3404445713386,-69.3404445713386,-69.3345612823032,-69.3316196377855,-69.3433862158563,-69.3492695048917,-69.3816275945865,-69.4228106178343,-69.5198848869186,-69.6404923121445,-69.8081660496537,-69.9258318303619,-69.9464233419858,-69.834640850313,-69.6228424450383,-69.4375188404229,-69.3022031926084,-69.2521952358074,-69.2286620796658,-69.2610201693606,-69.296319903573,-69.3757443055511,-69.4845851527061,-69.605192577932,-69.7287416476756,-69.7875745380297,-69.7610997373704,-69.6346090231091,-69.4934100862592,-69.3698610165156,-69.3110281261615,-69.2727867474314,-69.266903458396,-69.2816116809845,-69.2933782590553,-69.3198530597147,-69.316911415197,-69.3345612823032,-69.3316196377855,-69.346327860374,-69.3433862158563,-69.3522111494094,-69.346327860374,-69.346327860374,-69.3522111494094,-69.3492695048917,-69.3610360829625,-69.3610360829625,-69.3669193719979,-69.3669193719979,-69.3639777274802,-69.3492695048917,-69.3345612823032,-69.3286779932678,-69.3198530597147,-69.3375029268209,-69.3610360829625,-69.4169273287989,-69.5022350198124,-69.5993092888966,-69.6905002689455,-69.7287416476756,-69.705208491534,-69.6199008005206,-69.5316514649894,-69.4551687075291,-69.4286939068697,-69.4139856842812,-69.4169273287989,-69.4228106178343,-69.4198689733166,-69.4169273287989,-69.4022191062104,-69.3904525281396,-69.3786859500688,-69.3728026610333,-69.3610360829625,-69.3610360829625,-69.3845692391042,-69.4286939068697,-69.5081183088478,-69.5993092888966,-69.6993252024986,-69.7463915147819,-69.734624936711,-69.6522588902153,-69.5345931095071,-69.4316355513874,-69.3698610165156,-69.3492695048917,-69.3404445713386,-69.3551527939271,-69.3522111494094,-69.3610360829625,-69.3639777274802,-69.3816275945865,-69.3845692391042,-69.3904525281396
-69.316911415197,-69.2933782590553,-69.2698451029137,-69.266903458396,-69.2639618138783,-69.2816116809845,-69.3286779932678,-69.3845692391042,-69.4728185746353,-69.5463596875779,-69.6199008005206,-69.6140175114851,-69.5846010663081,-69.5022350198124,-69.4345771959051,-69.3728026610333,-69.3551527939271,-69.3522111494094,-69.3551527939271,-69.3610360829625,-69.3610360829625,-69.3698610165156,-69.3669193719979,-69.3816275945865,-69.3816275945865,-69.3904525281396,-69.396335817175,-69.3904525281396,-69.3904525281396,-69.3757443055511,-69.3757443055511,-69.3551527939271,-69.3492695048917,-69.3345612823032,-69.346327860374,-69.3492695048917,-69.3757443055511,-69.4081023952458,-69.4286939068697,-69.4639936410822,-69.4904684417415,-69.5051766643301,-69.4992933752947,-69.4904684417415,-69.4581103520468,-69.4345771959051,-69.4169273287989,-69.4022191062104,-69.4051607507281,-69.4081023952458,-69.425752262352,-69.4316355513874,-69.4434021294583,-69.4434021294583,-69.4522270630114,-69.4492854184937,-69.4551687075291,-69.4581103520468,-69.4492854184937,-69.4316355513874,-69.4169273287989,-69.3992774616927,-69.3904525281396,-69.3786859500688,-69.3728026610333,-69.3580944384448,-69.3522111494094,-69.3345612823032,-69.3345612823032,-69.3198530597147,-69.3286779932678,-69.3198530597147,-69.3227947042324,-69.3257363487501,-69.3492695048917,-69.3904525281396,-69.4787018636707,-69.5963676443789,-69.7316832921933,-69.8493490729015,-69.8817071625963,-69.7934578270651,-69.6169591560028,-69.425752262352,-69.296319903573,-69.2286620796658,-69.2139538570773,-69.2316037241835,-69.2786700364668,-69.3492695048917,-69.4610519965645,-69.5846010663081,-69.6875586244278,-69.7522748038173,-69.7287416476756,-69.6228424450383,-69.4816435081884,-69.3728026610333,-69.3110281261615,-69.2874949700199,-69.2874949700199,-69.3022031926084,-69.3198530597147,-69.3316196377855,-69.3404445713386,-69.3375029268209,-69.3404445713386,-69.3375029268209,-69.3404445713386,-69.346327860374,-69.3492695048917,-69.3551527939271,-69.3580944384448,-69.3669193719979,-69.3728026610333,-69.3875108836219,-69.3845692391042,-69.3875108836219,-69.3786859500688,-69.3728026610333,-69.3610360829625,-69.346327860374,-69.3433862158563,-69.3433862158563,-69.3757443055511,-69.4228106178343,-69.525768175954,-69.6346090231091,-69.7463915147819,-69.7934578270651,-69.7758079599589,-69.6699087573215,-69.5522429766133,-69.4610519965645,-69.4169273287989,-69.4051607507281,-69.4139856842812,-69.4169273287989,-69.4228106178343,-69.4139856842812,-69.4169273287989,-69.3992774616927,-69.3933941726573,-69.3786859500688,-69.3845692391042,-69.3845692391042,-69.4228106178343,-69.4698769301176,-69.5610679101665,-69.6757920463569,-69.7875745380297,-69.8522907174192,-69.8287575612776,-69.7228583586402,-69.575776132755,-69.4551687075291,-69.3757443055511,-69.3551527939271,-69.3492695048917,-69.3610360829625,-69.3728026610333,-69.3757443055511,-69.3816275945865,-69.3904525281396,-69.3992774616927,-69.396335817175
-69.2992615480907,-69.2639618138783,-69.2551368803252,-69.246311946772,-69.2492535912897,-69.2698451029137,-69.3257363487501,-69.4081023952458,-69.5140015978832,-69.6493172456976,-69.734624936711,-69.7758079599589,-69.705208491534,-69.5963676443789,-69.4845851527061,-69.4022191062104,-69.3639777274802,-69.3404445713386,-69.346327860374,-69.3375029268209,-69.346327860374,-69.3316196377855,-69.3404445713386,-69.3433862158563,-69.3522111494094,-69.3728026610333,-69.3845692391042,-69.4139856842812,-69.4198689733166,-69.4345771959051,-69.4081023952458,-69.4022191062104,-69.3728026610333,-69.3669193719979,-69.3580944384448,-69.3639777274802,-69.3875108836219,-69.4022191062104,-69.4316355513874,-69.446343773976,-69.4669352855999,-69.4610519965645,-69.4610519965645,-69.4522270630114,-69.4316355513874,-69.425752262352,-69.4051607507281,-69.4169273287989,-69.4051607507281,-69.4228106178343,-69.4198689733166,-69.4345771959051,-69.4404604849406,-69.446343773976,-69.4492854184937,-69.4404604849406,-69.4522270630114,-69.4434021294583,-69.4492854184937,-69.4286939068697,-69.4198689733166,-69.396335817175,-69.3875108836219,-69.3786859500688,-69.3669193719979,-69.3610360829625,-69.3375029268209,-69.3375029268209,-69.3198530597147,-69.3257363487501,-69.3110281261615,-69.3110281261615,-69.3051448371261,-69.3080864816438,-69.3286779932678,-69.3698610165156,-69.4522270630114,-69.555184621131,-69.6934419134632,-69.7816912489943,-69.8140493386891,-69.7375665812287,-69.5846010663081,-69.4228106178343,-69.3051448371261,-69.2433703022543,-69.2257204351481,-69.2374870132189,-69.2698451029137,-69.3286779932678,-69.396335817175,-69.475760219153,-69.5493013320956,-69.5728344882373,-69.5434180430602,-69.4581103520468,-69.3757443055511,-69.2933782590553,-69.2580785248429,-69.246311946772,-69.2610201693606,-69.2816116809845,-69.3080864816438,-69.3345612823032,-69.3375029268209,-69.3404445713386,-69.3286779932678,-69.3227947042324,-69.3227947042324,-69.3286779932678,-69.3286779932678,-69.3286779932678,-69.3316196377855,-69.3316196377855,-69.3433862158563,-69.3492695048917,-69.3580944384448,-69.3639777274802,-69.3610360829625,-69.3522111494094,-69.3375029268209,-69.3286779932678,-69.316911415197,-69.3286779932678,-69.346327860374,-69.4022191062104,-69.4845851527061,-69.5816594217904,-69.6816753353924,-69.7287416476756,-69.7169750696048,-69.6287257340737,-69.5228265314363,-69.4228106178343,-69.3845692391042,-69.3639777274802,-69.3669193719979,-69.3639777274802,-69.3580944384448,-69.3492695048917,-69.3345612823032,-69.3316196377855,-69.3198530597147,-69.3257363487501,-69.3198530597147,-69.3375029268209,-69.3551527939271,-69.4081023952458,-69.496351730777,-69.5934259998612,-69.7022668470163,-69.7669830264058,-69.7669830264058,-69.6787336908747,-69.555184621131,-69.425752262352,-69.3433862158563,-69.3051448371261,-69.2933782590553,-69.2992615480907,-69.3051448371261,-69.3257363487501,-69.3316196377855,-69.3492695048917,-69.3433862158563,-69.3492695048917
-69.3051448371261,-69.2816116809845,-69.2610201693606,-69.2610201693606,-69.2639618138783,-69.2904366145376,-69.3522111494094,-69.4375188404229,-69.555184621131,-69.6905002689455,-69.8022827606183,-69.8375824948307,-69.7993411161005,-69.6640254682861,-69.5404763985425,-69.425752262352,-69.3816275945865,-69.3551527939271,-69.3610360829625,-69.346327860374,-69.3492695048917,-69.3375029268209,-69.3433862158563,-69.3492695048917,-69.3698610165156,-69.3992774616927,-69.4492854184937,-69.4904684417415,-69.525768175954,-69.5316514649894,-69.5140015978832,-69.4610519965645,-69.4139856842812,-69.3757443055511,-69.3580944384448,-69.3551527939271,-69.3639777274802,-69.3816275945865,-69.3933941726573,-69.4081023952458,-69.4081023952458,-69.4110440397635,-69.4081023952458,-69.4169273287989,-69.3992774616927,-69.4022191062104,-69.3933941726573,-69.3933941726573,-69.4022191062104,-69.4110440397635,-69.4169273287989,-69.4228106178343,-69.4228106178343,-69.425752262352,-69.4198689733166,-69.4198689733166,-69.4110440397635,-69.4022191062104,-69.3875108836219,-69.3757443055511,-69.3639777274802,-69.3522111494094,-69.3580944384448,-69.3492695048917,-69.3522111494094,-69.3404445713386,-69.3433862158563,-69.3286779932678,-69.3404445713386,-69.3257363487501,-69.3286779932678,-69.3022031926084,-69.2933782590553,-69.2727867474314,-69.2816116809845,-69.3051448371261,-69.3580944384448,-69.4169273287989,-69.4992933752947,-69.5640095546842,-69.5816594217904,-69.5404763985425,-69.446343773976,-69.3316196377855,-69.2551368803252,-69.2139538570773,-69.2110122125596,-69.2316037241835,-69.2698451029137,-69.3110281261615,-69.3639777274802,-69.3992774616927,-69.4198689733166,-69.4169273287989,-69.3757443055511,-69.3316196377855,-69.2727867474314,-69.2316037241835,-69.2139538570773,-69.2345453687012,-69.2610201693606,-69.316911415197,-69.3522111494094,-69.3757443055511,-69.3757443055511,-69.3610360829625,-69.3433862158563,-69.3316196377855,-69.3316196377855,-69.3404445713386,-69.3522111494094,-69.3551527939271,-69.3698610165156,-69.3757443055511,-69.3875108836219,-69.4051607507281,-69.4169273287989,-69.4198689733166,-69.4198689733166,-69.3992774616927,-69.3845692391042,-69.3580944384448,-69.346327860374,-69.3345612823032,-69.3551527939271,-69.3816275945865,-69.4522270630114,-69.5287098204717,-69.6081342224497,-69.6522588902153,-69.6493172456976,-69.575776132755,-69.5051766643301,-69.4345771959051,-69.4139856842812,-69.4051607507281,-69.4139856842812,-69.4110440397635,-69.4169273287989,-69.3933941726573,-69.3845692391042,-69.3639777274802,-69.3580944384448,-69.346327860374,-69.3492695048917,-69.3580944384448,-69.3816275945865,-69.425752262352,-69.4992933752947,-69.5934259998612,-69.6846169799101,-69.734624936711,-69.7140334250871,-69.6287257340737,-69.5228265314363,-69.4286939068697,-69.3698610165156,-69.346327860374,-69.3492695048917,-69.3551527939271,-69.3698610165156,-69.3786859500688,-69.3904525281396,-69.3992774616927,-69.4022191062104,-69.3992774616927
-69.316911415197,-69.2874949700199,-69.2698451029137,-69.2580785248429,-69.2580785248429,-69.2933782590553,-69.3345612823032,-69.4198689733166,-69.5169432424009,-69.655200534733,-69.7493331592996,-69.8111076941714,-69.7640413818881,-69.6640254682861,-69.5316514649894,-69.4404604849406,-69.3904525281396,-69.3639777274802,-69.3580944384448,-69.3345612823032,-69.3345612823032,-69.3139697706793,-69.3286779932678,-69.3404445713386,-69.3875108836219,-69.4375188404229,-69.5169432424009,-69.5904843553435,-69.6522588902153,-69.6728504018392,-69.6346090231091,-69.555184621131,-69.475760219153,-69.4110440397635,-69.3875108836219,-69.3669193719979,-69.3845692391042,-69.3698610165156,-69.3904525281396,-69.3728026610333,-69.3816275945865,-69.3669193719979,-69.3845692391042,-69.3757443055511,-69.3845692391042,-69.3845692391042,-69.3845692391042,-69.3875108836219,-69.396335817175,-69.4051607507281,-69.4169273287989,-69.4228106178343,-69.4228106178343,-69.4139856842812,-69.4139856842812,-69.4022191062104,-69.396335817175,-69.3757443055511,-69.3639777274802,-69.346327860374,-69.3316196377855,-69.3316196377855,-69.3375029268209,-69.3492695048917,-69.346327860374,-69.3580944384448,-69.346327860374,-69.3551527939271,-69.3492695048917,-69.3492695048917,-69.3345612823032,-69.3257363487501,-69.3051448371261,-69.2933782590553,-69.2933782590553,-69.3080864816438,-69.346327860374,-69.396335817175,-69.4639936410822,-69.5110599533655,-69.5169432424009,-69.4816435081884,-69.4081023952458,-69.3404445713386,-69.2845533255022,-69.2639618138783,-69.2639618138783,-69.2933782590553,-69.3316196377855,-69.3669193719979,-69.4022191062104,-69.4110440397635,-69.425752262352,-69.3933941726573,-69.3728026610333,-69.3198530597147,-69.2933782590553,-69.2610201693606,-69.2757283919491,-69.3051448371261,-69.3669193719979,-69.4375188404229,-69.4904684417415,-69.5140015978832,-69.4875267972238,-69.4434021294583,-69.3845692391042,-69.3551527939271,-69.3404445713386,-69.3433862158563,-69.346327860374,-69.3522111494094,-69.3669193719979,-69.3757443055511,-69.396335817175,-69.4022191062104,-69.4198689733166,-69.425752262352,-69.4228106178343,-69.4169273287989,-69.4051607507281,-69.3904525281396,-69.3669193719979,-69.3551527939271,-69.346327860374,-69.3580944384448,-69.3933941726573,-69.4434021294583,-69.5051766643301,-69.5316514649894,-69.5316514649894,-69.4904684417415,-69.446343773976,-69.4110440397635,-69.4051607507281,-69.3933941726573,-69.396335817175,-69.3845692391042,-69.3845692391042,-69.3728026610333,-69.3639777274802,-69.3492695048917,-69.3404445713386,-69.3227947042324,-69.3198530597147,-69.3198530597147,-69.3316196377855,-69.3522111494094,-69.396335817175,-69.4375188404229,-69.4787018636707,-69.4904684417415,-69.4728185746353,-69.4228106178343,-69.3639777274802,-69.3051448371261,-69.2698451029137,-69.2551368803252,-69.2698451029137,-69.2933782590553,-69.3198530597147,-69.346327860374,-69.3728026610333,-69.3875108836219,-69.3904525281396,-69.3728026610333
-69.3551527939271,-69.3433862158563,-69.3139697706793,-69.3051448371261,-69.2933782590553,-69.3051448371261,-69.3580944384448,-69.4081023952458,-69.5022350198124,-69.5934259998612,-69.6787336908747,-69.7081501360517,-69.6846169799101,-69.5904843553435,-69.5051766643301,-69.4345771959051,-69.3875108836219,-69.3698610165156,-69.346327860374,-69.3345612823032,-69.3227947042324,-69.3227947042324,-69.3257363487501,-69.3492695048917,-69.3875108836219,-69.4581103520468,-69.5640095546842,-69.6640254682861,-69.7699246709235,-69.7934578270651,-69.7640413818881,-69.6522588902153,-69.5345931095071,-69.4345771959051,-69.3845692391042,-69.3639777274802,-69.3610360829625,-69.3669193719979,-69.3610360829625,-69.3610360829625,-69.3522111494094,-69.3522111494094,-69.3551527939271,-69.3580944384448,-69.3639777274802,-69.3669193719979,-69.3757443055511,-69.3786859500688,-69.396335817175,-69.3992774616927,-69.4198689733166,-69.4228106178343,-69.4228106178343,-69.4110440397635,-69.4081023952458,-69.3992774616927,-69.3875108836219,-69.3728026610333,-69.3522111494094,-69.3404445713386,-69.3286779932678,-69.3375029268209,-69.3492695048917,-69.3669193719979,-69.3875108836219,-69.3992774616927,-69.4081023952458,-69.4081023952458,-69.4081023952458,-69.396335817175,-69.3845692391042,-69.3551527939271,-69.3257363487501,-69.296319903573,-69.2786700364668,-69.2816116809845,-69.2933782590553,-69.3110281261615,-69.3433862158563,-69.3610360829625,-69.3610360829625,-69.3492695048917,-69.316911415197,-69.2845533255022,-69.2845533255022,-69.2845533255022,-69.3257363487501,-69.3669193719979,-69.4139856842812,-69.446343773976,-69.4522270630114,-69.4404604849406,-69.396335817175,-69.3522111494094,-69.3080864816438,-69.2904366145376,-69.2639618138783,-69.2727867474314,-69.3051448371261,-69.3610360829625,-69.446343773976,-69.5434180430602,-69.6169591560028,-69.6375506676268,-69.6081342224497,-69.5345931095071,-69.4551687075291,-69.3933941726573,-69.3580944384448,-69.3580944384448,-69.3580944384448,-69.3786859500688,-69.3816275945865,-69.396335817175,-69.3992774616927,-69.4228106178343,-69.4286939068697,-69.4434021294583,-69.4375188404229,-69.425752262352,-69.4198689733166,-69.4022191062104,-69.3933941726573,-69.3728026610333,-69.3698610165156,-69.3580944384448,-69.3816275945865,-69.3933941726573,-69.425752262352,-69.4434021294583,-69.4522270630114,-69.4492854184937,-69.4345771959051,-69.4198689733166,-69.4139856842812,-69.4110440397635,-69.4139856842812,-69.4051607507281,-69.3992774616927,-69.3786859500688,-69.3816275945865,-69.3610360829625,-69.3610360829625,-69.3433862158563,-69.346327860374,-69.3345612823032,-69.346327860374,-69.3522111494094,-69.3845692391042,-69.4198689733166,-69.4492854184937,-69.4581103520468,-69.4375188404229,-69.4051607507281,-69.3639777274802,-69.3316196377855,-69.3139697706793,-69.3139697706793,-69.3286779932678,-69.3492695048917,-69.3933941726573,-69.4286939068697,-69.4610519965645,-69.4698769301176,-69.4669352855999,-69.4375188404229
-69.3904525281396,-69.3786859500688,-69.346327860374,-69.3286779932678,-69.3080864816438,-69.3080864816438,-69.3345612823032,-69.3669193719979,-69.4345771959051,-69.4904684417415,-69.5493013320956,-69.5698928437196,-69.5728344882373,-69.5169432424009,-69.4728185746353,-69.4169273287989,-69.3875108836219,-69.3639777274802,-69.3404445713386,-69.3227947042324,-69.3080864816438,-69.3051448371261,-69.3110281261615,-69.3345612823032,-69.3728026610333,-69.4492854184937,-69.5640095546842,-69.6846169799101,-69.805224405136,-69.8493490729015,-69.8140493386891,-69.6934419134632,-69.555184621131,-69.4404604849406,-69.3845692391042,-69.3580944384448,-69.3551527939271,-69.3580944384448,-69.346327860374,-69.3433862158563,-69.3257363487501,-69.3286779932678,-69.3257363487501,-69.3345612823032,-69.3316196377855,-69.3433862158563,-69.3492695048917,-69.3639777274802,-69.3845692391042,-69.396335817175,-69.4110440397635,-69.4139856842812,-69.4110440397635,-69.4022191062104,-69.3933941726573,-69.3786859500688,-69.3669193719979,-69.346327860374,-69.3316196377855,-69.3227947042324,-69.3198530597147,-69.3345612823032,-69.3786859500688,-69.4169273287989,-69.4669352855999,-69.4992933752947,-69.5287098204717,-69.5375347540248,-69.5522429766133,-69.5345931095071,-69.5022350198124,-69.4375188404229,-69.3816275945865,-69.316911415197,-69.2845533255022,-69.2727867474314,-69.2786700364668,-69.2816116809845,-69.2992615480907,-69.2992615480907,-69.296319903573,-69.2933782590553,-69.2904366145376,-69.2786700364668,-69.296319903573,-69.3110281261615,-69.3669193719979,-69.4404604849406,-69.5198848869186,-69.5728344882373,-69.575776132755,-69.5228265314363,-69.4345771959051,-69.3551527939271,-69.2933782590553,-69.2698451029137,-69.2580785248429,-69.2786700364668,-69.3198530597147,-69.3875108836219,-69.4934100862592,-69.6140175114851,-69.7287416476756,-69.7699246709235,-69.7375665812287,-69.6316673785914,-69.5169432424009,-69.4228106178343,-69.3786859500688,-69.3669193719979,-69.3669193719979,-69.3786859500688,-69.3845692391042,-69.4051607507281,-69.4169273287989,-69.4492854184937,-69.4581103520468,-69.4698769301176,-69.4610519965645,-69.4492854184937,-69.4345771959051,-69.4198689733166,-69.4051607507281,-69.3845692391042,-69.3757443055511,-69.3551527939271,-69.3610360829625,-69.3639777274802,-69.3816275945865,-69.3933941726573,-69.4081023952458,-69.4110440397635,-69.4198689733166,-69.425752262352,-69.4286939068697,-69.4286939068697,-69.425752262352,-69.4110440397635,-69.3933941726573,-69.3728026610333,-69.3639777274802,-69.3433862158563,-69.3404445713386,-69.3286779932678,-69.3286779932678,-69.3198530597147,-69.3286779932678,-69.3257363487501,-69.3404445713386,-69.346327860374,-69.3492695048917,-69.3404445713386,-69.3227947042324,-69.3051448371261,-69.2845533255022,-69.266903458396,-69.2610201693606,-69.2698451029137,-69.2933782590553,-69.3404445713386,-69.4022191062104,-69.4728185746353,-69.5287098204717,-69.555184621131,-69.5434180430602,-69.4904684417415
-69.5051766643301,-69.4728185746353,-69.4198689733166,-69.3698610165156,-69.3198530597147,-69.3139697706793,-69.2992615480907,-69.3375029268209,-69.3669193719979,-69.4169273287989,-69.4375188404229,-69.4787018636707,-69.4698769301176,-69.4669352855999,-69.4492854184937,-69.4081023952458,-69.3904525281396,-69.3492695048917,-69.3433862158563,-69.3286779932678,-69.3345612823032,-69.3198530597147,-69.3345612823032,-69.3404445713386,-69.3757443055511,-69.4404604849406,-69.5198848869186,-69.6346090231091,-69.7287416476756,-69.7816912489943,-69.7493331592996,-69.6493172456976,-69.525768175954,-69.4316355513874,-69.3728026610333,-69.3345612823032,-69.3345612823032,-69.3139697706793,-69.3257363487501,-69.3139697706793,-69.316911415197,-69.3110281261615,-69.3139697706793,-69.3110281261615,-69.3139697706793,-69.3198530597147,-69.3198530597147,-69.3433862158563,-69.3492695048917,-69.3728026610333,-69.3845692391042,-69.3904525281396,-69.3845692391042,-69.3757443055511,-69.3639777274802,-69.3433862158563,-69.3345612823032,-69.316911415197,-69.3139697706793,-69.3080864816438,-69.3257363487501,-69.3580944384448,-69.4139856842812,-69.4875267972238,-69.5581262656488,-69.625784089556,-69.6640254682861,-69.7022668470163,-69.7081501360517,-69.6963835579809,-69.6375506676268,-69.5522429766133,-69.4522270630114,-69.3639777274802,-69.3110281261615,-69.2786700364668,-69.2727867474314,-69.266903458396,-69.2786700364668,-69.2698451029137,-69.2786700364668,-69.2757283919491,-69.2816116809845,-69.2933782590553,-69.3198530597147,-69.3522111494094,-69.4345771959051,-69.5375347540248,-69.6522588902153,-69.7258000031579,-69.7375665812287,-69.6463756011799,-69.5228265314363,-69.3875108836219,-69.3080864816438,-69.2639618138783,-69.2580785248429,-69.2786700364668,-69.3257363487501,-69.396335817175,-69.5110599533655,-69.6434339566622,-69.755216448335,-69.8140493386891,-69.7758079599589,-69.6699087573215,-69.5404763985425,-69.4434021294583,-69.396335817175,-69.3816275945865,-69.3698610165156,-69.3757443055511,-69.3816275945865,-69.3933941726573,-69.4228106178343,-69.4434021294583,-69.4551687075291,-69.4728185746353,-69.4669352855999,-69.4639936410822,-69.4492854184937,-69.4345771959051,-69.4081023952458,-69.3933941726573,-69.3669193719979,-69.3639777274802,-69.3669193719979,-69.3639777274802,-69.3845692391042,-69.3845692391042,-69.3992774616927,-69.3992774616927,-69.4169273287989,-69.4198689733166,-69.4434021294583,-69.4375188404229,-69.4404604849406,-69.4228106178343,-69.4051607507281,-69.3845692391042,-69.3610360829625,-69.3433862158563,-69.3316196377855,-69.3257363487501,-69.3257363487501,-69.3316196377855,-69.3433862158563,-69.346327860374,-69.346327860374,-69.3316196377855,-69.316911415197,-69.2874949700199,-69.2727867474314,-69.2580785248429,-69.2521952358074,-69.2433703022543,-69.2551368803252,-69.2727867474314,-69.3110281261615,-69.3786859500688,-69.4551687075291,-69.5581262656488,-69.6404923121445,-69.6963835579809,-69.6699087573215,-69.5934259998612
-69.6140175114851,-69.5816594217904,-69.5051766643301,-69.425752262352,-69.3580944384448,-69.3286779932678,-69.3198530597147,-69.3316196377855,-69.3492695048917,-69.3669193719979,-69.3816275945865,-69.3875108836219,-69.396335817175,-69.3904525281396,-69.3875108836219,-69.3728026610333,-69.3551527939271,-69.3404445713386,-69.3227947042324,-69.3110281261615,-69.3080864816438,-69.3110281261615,-69.3198530597147,-69.3375029268209,-69.3728026610333,-69.4228106178343,-69.5051766643301,-69.5787177772727,-69.6610838237684,-69.6875586244278,-69.6699087573215,-69.5875427108258,-69.5051766643301,-69.425752262352,-69.3816275945865,-69.3580944384448,-69.3492695048917,-69.3433862158563,-69.3316196377855,-69.3286779932678,-69.316911415197,-69.3139697706793,-69.316911415197,-69.3198530597147,-69.3257363487501,-69.3316196377855,-69.346327860374,-69.3551527939271,-69.3786859500688,-69.3845692391042,-69.4022191062104,-69.3992774616927,-69.396335817175,-69.3875108836219,-69.3669193719979,-69.3522111494094,-69.3257363487501,-69.3139697706793,-69.2904366145376,-69.2992615480907,-69.3080864816438,-69.3639777274802,-69.4492854184937,-69.5610679101665,-69.6728504018392,-69.7699246709235,-69.8493490729015,-69.8875904516317,-69.9022986742202,-69.8728822290432,-69.8022827606183,-69.6757920463569,-69.5375347540248,-69.4169273287989,-69.3345612823032,-69.2992615480907,-69.2816116809845,-69.2786700364668,-69.2757283919491,-69.2845533255022,-69.2845533255022,-69.296319903573,-69.3051448371261,-69.316911415197,-69.3522111494094,-69.3933941726573,-69.4904684417415,-69.5963676443789,-69.7287416476756,-69.8081660496537,-69.8258159167599,-69.7316832921933,-69.5787177772727,-69.4198689733166,-69.3227947042324,-69.2757283919491,-69.266903458396,-69.2874949700199,-69.3345612823032,-69.4081023952458,-69.5169432424009,-69.6404923121445,-69.7434498702642,-69.7905161825474,-69.7581580928527,-69.6463756011799,-69.5345931095071,-69.4345771959051,-69.3933941726573,-69.3757443055511,-69.3669193719979,-69.3610360829625,-69.3639777274802,-69.3728026610333,-69.3875108836219,-69.4169273287989,-69.4286939068697,-69.446343773976,-69.4434021294583,-69.446343773976,-69.4345771959051,-69.425752262352,-69.3992774616927,-69.3786859500688,-69.3580944384448,-69.346327860374,-69.346327860374,-69.346327860374,-69.3610360829625,-69.3728026610333,-69.3904525281396,-69.396335817175,-69.4110440397635,-69.4139856842812,-69.4286939068697,-69.425752262352,-69.425752262352,-69.4051607507281,-69.3933941726573,-69.3639777274802,-69.3522111494094,-69.3257363487501,-69.3198530597147,-69.3139697706793,-69.3316196377855,-69.3492695048917,-69.3786859500688,-69.3933941726573,-69.3933941726573,-69.3698610165156,-69.3345612823032,-69.2933782590553,-69.2580785248429,-69.2345453687012,-69.2257204351481,-69.2227787906304,-69.2286620796658,-69.2521952358074,-69.2933782590553,-69.3698610165156,-69.4787018636707,-69.5993092888966,-69.7169750696048,-69.7816912489943,-69.7640413818881,-69.6699087573215
-69.7258000031579,-69.6816753353924,-69.5846010663081,-69.4492854184937,-69.3404445713386,-69.2904366145376,-69.2639618138783,-69.2786700364668,-69.2933782590553,-69.3110281261615,-69.3051448371261,-69.3286779932678,-69.3198530597147,-69.3286779932678,-69.3345612823032,-69.3198530597147,-69.3139697706793,-69.2933782590553,-69.2786700364668,-69.2639618138783,-69.2698451029137,-69.2551368803252,-69.266903458396,-69.2698451029137,-69.2874949700199,-69.3257363487501,-69.3610360829625,-69.4169273287989,-69.4522270630114,-69.4639936410822,-69.4434021294583,-69.4110440397635,-69.3669193719979,-69.3433862158563,-69.3257363487501,-69.3110281261615,-69.3139697706793,-69.2992615480907,-69.2933782590553,-69.2786700364668,-69.2727867474314,-69.2639618138783,-69.2639618138783,-69.2610201693606,-69.2610201693606,-69.2816116809845,-69.2874949700199,-69.316911415197,-69.3286779932678,-69.346327860374,-69.3551527939271,-69.3580944384448,-69.3580944384448,-69.3551527939271,-69.346327860374,-69.3257363487501,-69.3198530597147,-69.2992615480907,-69.2904366145376,-69.2933782590553,-69.3198530597147,-69.3904525281396,-69.4875267972238,-69.625784089556,-69.755216448335,-69.8875904516317,-69.9670148536097,-70.0229060994461,-70.0170228104107,-69.9817230761983,-69.8787655180786,-69.7287416476756,-69.5640095546842,-69.4198689733166,-69.3375029268209,-69.2933782590553,-69.2874949700199,-69.2786700364668,-69.2904366145376,-69.2845533255022,-69.2874949700199,-69.2992615480907,-69.3022031926084,-69.3316196377855,-69.3522111494094,-69.4051607507281,-69.4787018636707,-69.5875427108258,-69.6963835579809,-69.7787496044766,-69.7875745380297,-69.6905002689455,-69.5522429766133,-69.3933941726573,-69.3139697706793,-69.2610201693606,-69.266903458396,-69.2727867474314,-69.3198530597147,-69.3669193719979,-69.4551687075291,-69.5463596875779,-69.6287257340737,-69.6757920463569,-69.6434339566622,-69.575776132755,-69.4875267972238,-69.4198689733166,-69.3757443055511,-69.3610360829625,-69.3522111494094,-69.3522111494094,-69.3639777274802,-69.3639777274802,-69.3904525281396,-69.4022191062104,-69.4198689733166,-69.425752262352,-69.4286939068697,-69.4228106178343,-69.4198689733166,-69.4169273287989,-69.3992774616927,-69.3904525281396,-69.3610360829625,-69.3580944384448,-69.3433862158563,-69.3492695048917,-69.3551527939271,-69.3698610165156,-69.3786859500688,-69.3933941726573,-69.4081023952458,-69.4051607507281,-69.4110440397635,-69.4022191062104,-69.3904525281396,-69.3698610165156,-69.346327860374,-69.3286779932678,-69.3110281261615,-69.3051448371261,-69.3051448371261,-69.316911415197,-69.3345612823032,-69.3845692391042,-69.4375188404229,-69.475760219153,-69.4845851527061,-69.446343773976,-69.3875108836219,-69.3080864816438,-69.2521952358074,-69.216895501595,-69.2080705680419,-69.2051289235242,-69.2227787906304,-69.246311946772,-69.296319903573,-69.3786859500688,-69.5022350198124,-69.6404923121445,-69.7787496044766,-69.8464074283838,-69.8228742722422,-69.7022668470163
-69.834640850313,-69.8022827606183,-69.6816753353924,-69.5345931095071,-69.4022191062104,-69.3257363487501,-69.3110281261615,-69.3051448371261,-69.3316196377855,-69.3375029268209,-69.3639777274802,-69.3551527939271,-69.3816275945865,-69.3669193719979,-69.3728026610333,-69.3551527939271,-69.3492695048917,-69.3404445713386,-69.3375029268209,-69.3404445713386,-69.3375029268209,-69.3433862158563,-69.3375029268209,-69.3433862158563,-69.3375029268209,-69.3433862158563,-69.3551527939271,-69.3728026610333,-69.3933941726573,-69.4022191062104,-69.3992774616927,-69.3786859500688,-69.3580944384448,-69.3345612823032,-69.3257363487501,-69.316911415197,-69.3110281261615,-69.3257363487501,-69.316911415197,-69.3257363487501,-69.3110281261615,-69.3080864816438,-69.2904366145376,-69.296319903573,-69.2816116809845,-69.2933782590553,-69.3080864816438,-69.3257363487501,-69.3610360829625,-69.3786859500688,-69.396335817175,-69.3875108836219,-69.3757443055511,-69.3492695048917,-69.3375029268209,-69.3139697706793,-69.3051448371261,-69.2904366145376,-69.2845533255022,-69.2933782590553,-69.3198530597147,-69.3728026610333,-69.4728185746353,-69.5875427108258,-69.7228583586402,-69.8375824948307,-69.9199485413264,-69.9581899200566,-69.964073209092,-69.9081819632556,-69.8199326277245,-69.6699087573215,-69.525768175954,-69.3992774616927,-69.3286779932678,-69.2904366145376,-69.2874949700199,-69.2874949700199,-69.296319903573,-69.3080864816438,-69.3080864816438,-69.316911415197,-69.3286779932678,-69.3404445713386,-69.3639777274802,-69.4051607507281,-69.4551687075291,-69.5345931095071,-69.6140175114851,-69.6610838237684,-69.6463756011799,-69.5669511992019,-69.4404604849406,-69.3492695048917,-69.2757283919491,-69.2551368803252,-69.2433703022543,-69.2639618138783,-69.2845533255022,-69.3345612823032,-69.3816275945865,-69.446343773976,-69.496351730777,-69.5228265314363,-69.5228265314363,-69.4845851527061,-69.4375188404229,-69.3933941726573,-69.3580944384448,-69.3433862158563,-69.3286779932678,-69.3198530597147,-69.3198530597147,-69.3345612823032,-69.3433862158563,-69.3639777274802,-69.3757443055511,-69.3845692391042,-69.3992774616927,-69.3933941726573,-69.3904525281396,-69.3757443055511,-69.3728026610333,-69.3522111494094,-69.3580944384448,-69.3433862158563,-69.3551527939271,-69.3492695048917,-69.3639777274802,-69.3728026610333,-69.3933941726573,-69.4022191062104,-69.4169273287989,-69.425752262352,-69.425752262352,-69.4139856842812,-69.396335817175,-69.3669193719979,-69.3492695048917,-69.3227947042324,-69.3080864816438,-69.2904366145376,-69.2992615480907,-69.316911415197,-69.3728026610333,-69.4404604849406,-69.5228265314363,-69.575776132755,-69.5875427108258,-69.5404763985425,-69.4404604849406,-69.3375029268209,-69.2521952358074,-69.2110122125596,-69.1904207009356,-69.1933623454534,-69.1904207009356,-69.2198371461127,-69.2580785248429,-69.3375029268209,-69.4375188404229,-69.5463596875779,-69.655200534733,-69.7228583586402,-69.7169750696048,-69.6169591560028
-69.7934578270651,-69.7581580928527,-69.6581421792507,-69.5169432424009,-69.3933941726573,-69.3316196377855,-69.3022031926084,-69.3022031926084,-69.3110281261615,-69.3345612823032,-69.3345612823032,-69.3551527939271,-69.3551527939271,-69.3639777274802,-69.3698610165156,-69.3551527939271,-69.3492695048917,-69.3345612823032,-69.3433862158563,-69.346327860374,-69.3669193719979,-69.3669193719979,-69.3845692391042,-69.3786859500688,-69.3669193719979,-69.3580944384448,-69.3404445713386,-69.3433862158563,-69.3375029268209,-69.3433862158563,-69.3404445713386,-69.3345612823032,-69.3257363487501,-69.3198530597147,-69.316911415197,-69.3110281261615,-69.3139697706793,-69.2992615480907,-69.3080864816438,-69.296319903573,-69.296319903573,-69.2845533255022,-69.2727867474314,-69.266903458396,-69.2639618138783,-69.2816116809845,-69.296319903573,-69.3404445713386,-69.3728026610333,-69.4139856842812,-69.4228106178343,-69.4198689733166,-69.3904525281396,-69.3551527939271,-69.3257363487501,-69.2992615480907,-69.2816116809845,-69.2580785248429,-69.2610201693606,-69.266903458396,-69.2904366145376,-69.3316196377855,-69.4051607507281,-69.5081183088478,-69.625784089556,-69.734624936711,-69.7934578270651,-69.8199326277245,-69.7993411161005,-69.7581580928527,-69.6699087573215,-69.5640095546842,-69.4610519965645,-69.3669193719979,-69.3198530597147,-69.296319903573,-69.296319903573,-69.296319903573,-69.3198530597147,-69.3227947042324,-69.3375029268209,-69.3375029268209,-69.3433862158563,-69.3551527939271,-69.3728026610333,-69.3992774616927,-69.4375188404229,-69.475760219153,-69.5140015978832,-69.5345931095071,-69.5140015978832,-69.4581103520468,-69.3933941726573,-69.3198530597147,-69.2816116809845,-69.2580785248429,-69.2610201693606,-69.2757283919491,-69.2992615480907,-69.3257363487501,-69.3580944384448,-69.3904525281396,-69.4139856842812,-69.4375188404229,-69.4286939068697,-69.4228106178343,-69.3933941726573,-69.3669193719979,-69.346327860374,-69.3375029268209,-69.3198530597147,-69.3198530597147,-69.3198530597147,-69.3257363487501,-69.3433862158563,-69.3610360829625,-69.3728026610333,-69.396335817175,-69.396335817175,-69.4022191062104,-69.3933941726573,-69.3816275945865,-69.3639777274802,-69.3610360829625,-69.3492695048917,-69.3492695048917,-69.3551527939271,-69.3580944384448,-69.3786859500688,-69.3845692391042,-69.4081023952458,-69.4169273287989,-69.4345771959051,-69.4316355513874,-69.4375188404229,-69.4228106178343,-69.4051607507281,-69.3904525281396,-69.3639777274802,-69.3433862158563,-69.316911415197,-69.3110281261615,-69.3198530597147,-69.3580944384448,-69.4228106178343,-69.5228265314363,-69.6287257340737,-69.7081501360517,-69.7287416476756,-69.6610838237684,-69.5287098204717,-69.3816275945865,-69.2698451029137,-69.2110122125596,-69.1874790564179,-69.1815957673825,-69.1933623454534,-69.2227787906304,-69.2610201693606,-69.3257363487501,-69.3904525281396,-69.4875267972238,-69.5669511992019,-69.6199008005206,-69.6081342224497,-69.5375347540248
-69.7081501360517,-69.6875586244278,-69.6022509334143,-69.4992933752947,-69.3933941726573,-69.3404445713386,-69.3257363487501,-69.3198530597147,-69.3345612823032,-69.3375029268209,-69.3492695048917,-69.3492695048917,-69.3639777274802,-69.3522111494094,-69.3551527939271,-69.3375029268209,-69.3316196377855,-69.3286779932678,-69.3286779932678,-69.346327860374,-69.3728026610333,-69.4051607507281,-69.4345771959051,-69.446343773976,-69.4316355513874,-69.396335817175,-69.3580944384448,-69.3227947042324,-69.3051448371261,-69.2904366145376,-69.2904366145376,-69.2904366145376,-69.2933782590553,-69.296319903573,-69.3022031926084,-69.3080864816438,-69.3139697706793,-69.3316196377855,-69.3316196377855,-69.3404445713386,-69.3345612823032,-69.3375029268209,-69.3316196377855,-69.3316196377855,-69.3286779932678,-69.3375029268209,-69.3610360829625,-69.3933941726573,-69.4522270630114,-69.4992933752947,-69.5228265314363,-69.5169432424009,-69.4787018636707,-69.4286939068697,-69.3757443055511,-69.3433862158563,-69.3139697706793,-69.3022031926084,-69.2845533255022,-69.2874949700199,-69.2933782590553,-69.3227947042324,-69.3728026610333,-69.4375188404229,-69.5081183088478,-69.5581262656488,-69.5846010663081,-69.5875427108258,-69.5816594217904,-69.5522429766133,-69.5169432424009,-69.4639936410822,-69.4022191062104,-69.3610360829625,-69.3316196377855,-69.3316196377855,-69.3345612823032,-69.346327860374,-69.3551527939271,-69.3728026610333,-69.3757443055511,-69.3904525281396,-69.3933941726573,-69.3904525281396,-69.3992774616927,-69.3933941726573,-69.4022191062104,-69.4051607507281,-69.425752262352,-69.4198689733166,-69.4139856842812,-69.3728026610333,-69.3375029268209,-69.3022031926084,-69.2845533255022,-69.2816116809845,-69.2845533255022,-69.2933782590553,-69.316911415197,-69.3404445713386,-69.3698610165156,-69.4022191062104,-69.4198689733166,-69.425752262352,-69.425752262352,-69.4081023952458,-69.3875108836219,-69.3639777274802,-69.3492695048917,-69.3345612823032,-69.3257363487501,-69.316911415197,-69.3198530597147,-69.3257363487501,-69.3316196377855,-69.346327860374,-69.346327860374,-69.3639777274802,-69.3669193719979,-69.3786859500688,-69.3728026610333,-69.3728026610333,-69.3580944384448,-69.3492695048917,-69.3404445713386,-69.3345612823032,-69.3404445713386,-69.346327860374,-69.3551527939271,-69.3728026610333,-69.3904525281396,-69.4051607507281,-69.4198689733166,-69.4198689733166,-69.4198689733166,-69.4051607507281,-69.3875108836219,-69.3698610165156,-69.3522111494094,-69.3375029268209,-69.3316196377855,-69.3316196377855,-69.3522111494094,-69.3933941726573,-69.4698769301176,-69.5787177772727,-69.705208491534,-69.7993411161005,-69.8287575612776,-69.7522748038173,-69.5993092888966,-69.4169273287989,-69.2786700364668,-69.2051289235242,-69.1757124783471,-69.166887544794,-69.1815957673825,-69.2051289235242,-69.2404286577366,-69.2816116809845,-69.3375029268209,-69.3904525281396,-69.4404604849406,-69.4669352855999,-69.4522270630114,-69.4051607507281
-69.5345931095071,-69.4992933752947,-69.4639936410822,-69.3904525281396,-69.3316196377855,-69.3198530597147,-69.3080864816438,-69.3198530597147,-69.3198530597147,-69.3433862158563,-69.3286779932678,-69.3551527939271,-69.3433862158563,-69.3522111494094,-69.346327860374,-69.3433862158563,-69.3433862158563,-69.3404445713386,-69.3669193719979,-69.3933941726573,-69.4581103520468,-69.5022350198124,-69.5581262656488,-69.5669511992019,-69.5345931095071,-69.4698769301176,-69.3875108836219,-69.3257363487501,-69.2757283919491,-69.2639618138783,-69.246311946772,-69.2521952358074,-69.2521952358074,-69.266903458396,-69.2816116809845,-69.2992615480907,-69.3316196377855,-69.3492695048917,-69.3786859500688,-69.3845692391042,-69.4022191062104,-69.396335817175,-69.3992774616927,-69.3904525281396,-69.3845692391042,-69.3904525281396,-69.4051607507281,-69.4610519965645,-69.525768175954,-69.5934259998612,-69.6287257340737,-69.6110758669674,-69.5522429766133,-69.4669352855999,-69.4022191062104,-69.346327860374,-69.3316196377855,-69.3080864816438,-69.3080864816438,-69.296319903573,-69.3051448371261,-69.316911415197,-69.346327860374,-69.3875108836219,-69.4286939068697,-69.4551687075291,-69.4669352855999,-69.4698769301176,-69.4581103520468,-69.4404604849406,-69.4081023952458,-69.3757443055511,-69.3522111494094,-69.3316196377855,-69.3316196377855,-69.3316196377855,-69.346327860374,-69.3580944384448,-69.3845692391042,-69.3992774616927,-69.4139856842812,-69.4286939068697,-69.4286939068697,-69.4375188404229,-69.4316355513874,-69.425752262352,-69.4081023952458,-69.3992774616927,-69.3875108836219,-69.3698610165156,-69.3492695048917,-69.3110281261615,-69.2933782590553,-69.2610201693606,-69.2639618138783,-69.2492535912897,-69.2698451029137,-69.2698451029137,-69.2992615480907,-69.3139697706793,-69.3433862158563,-69.3669193719979,-69.3786859500688,-69.396335817175,-69.396335817175,-69.3992774616927,-69.3845692391042,-69.3728026610333,-69.3580944384448,-69.3492695048917,-69.3375029268209,-69.3316196377855,-69.3316196377855,-69.3257363487501,-69.3375029268209,-69.3433862158563,-69.3551527939271,-69.3639777274802,-69.3669193719979,-69.3728026610333,-69.3610360829625,-69.3639777274802,-69.3433862158563,-69.3522111494094,-69.3316196377855,-69.346327860374,-69.3433862158563,-69.3639777274802,-69.3757443055511,-69.3992774616927,-69.4169273287989,-69.4345771959051,-69.446343773976,-69.4434021294583,-69.4375188404229,-69.4169273287989,-69.3904525281396,-69.3610360829625,-69.3375029268209,-69.3198530597147,-69.3110281261615,-69.3227947042324,-69.346327860374,-69.4022191062104,-69.4728185746353,-69.5904843553435,-69.7228583586402,-69.8434657838661,-69.8905320961494,-69.8169909832068,-69.6463756011799,-69.4375188404229,-69.296319903573,-69.2080705680419,-69.1874790564179,-69.1727708338294,-69.1933623454534,-69.2080705680419,-69.2374870132189,-69.2639618138783,-69.3080864816438,-69.3375029268209,-69.3698610165156,-69.3757443055511,-69.3639777274802,-69.3316196377855
-69.4286939068697,-69.4286939068697,-69.3875108836219,-69.3610360829625,-69.3257363487501,-69.316911415197,-69.3345612823032,-69.3316196377855,-69.3433862158563,-69.3345612823032,-69.3492695048917,-69.3433862158563,-69.3610360829625,-69.3492695048917,-69.3522111494094,-69.3375029268209,-69.3375029268209,-69.3551527939271,-69.3845692391042,-69.4375188404229,-69.5198848869186,-69.6081342224497,-69.6875586244278,-69.7228583586402,-69.6934419134632,-69.5846010663081,-69.4669352855999,-69.3522111494094,-69.2874949700199,-69.2433703022543,-69.2374870132189,-69.2316037241835,-69.2433703022543,-69.2551368803252,-69.2727867474314,-69.3051448371261,-69.346327860374,-69.4139856842812,-69.4492854184937,-69.4992933752947,-69.5110599533655,-69.5316514649894,-69.5198848869186,-69.5198848869186,-69.5022350198124,-69.4934100862592,-69.5022350198124,-69.5493013320956,-69.6287257340737,-69.6993252024986,-69.7405082257465,-69.7110917805694,-69.6228424450383,-69.5081183088478,-69.4110440397635,-69.3492695048917,-69.3198530597147,-69.3110281261615,-69.296319903573,-69.296319903573,-69.2816116809845,-69.2845533255022,-69.2933782590553,-69.316911415197,-69.3404445713386,-69.3522111494094,-69.3551527939271,-69.346327860374,-69.346327860374,-69.3345612823032,-69.346327860374,-69.3286779932678,-69.316911415197,-69.3080864816438,-69.316911415197,-69.3345612823032,-69.3580944384448,-69.3728026610333,-69.3904525281396,-69.4051607507281,-69.4139856842812,-69.4228106178343,-69.4228106178343,-69.4139856842812,-69.4139856842812,-69.3904525281396,-69.3698610165156,-69.3404445713386,-69.3257363487501,-69.3110281261615,-69.3080864816438,-69.2845533255022,-69.266903458396,-69.2580785248429,-69.2551368803252,-69.2757283919491,-69.2845533255022,-69.296319903573,-69.3051448371261,-69.316911415197,-69.3286779932678,-69.346327860374,-69.3522111494094,-69.3580944384448,-69.3580944384448,-69.3522111494094,-69.3404445713386,-69.3345612823032,-69.3227947042324,-69.3227947042324,-69.316911415197,-69.3198530597147,-69.316911415197,-69.3198530597147,-69.3257363487501,-69.346327860374,-69.3610360829625,-69.3757443055511,-69.3845692391042,-69.3786859500688,-69.3786859500688,-69.3522111494094,-69.3404445713386,-69.3110281261615,-69.3139697706793,-69.296319903573,-69.3139697706793,-69.3110281261615,-69.3345612823032,-69.3580944384448,-69.3845692391042,-69.4022191062104,-69.4110440397635,-69.4139856842812,-69.4110440397635,-69.4022191062104,-69.3786859500688,-69.3580944384448,-69.3345612823032,-69.3227947042324,-69.3345612823032,-69.3522111494094,-69.4051607507281,-69.4698769301176,-69.5610679101665,-69.6669671128038,-69.7905161825474,-69.8934737406671,-69.9199485413264,-69.8405241393484,-69.6404923121445,-69.4345771959051,-69.2580785248429,-69.1845374119002,-69.1521793222055,-69.166887544794,-69.1815957673825,-69.2110122125596,-69.2345453687012,-69.2727867474314,-69.2992615480907,-69.3198530597147,-69.3257363487501,-69.3139697706793,-69.2992615480907,-69.2727867474314
-69.3198530597147,-69.3286779932678,-69.3080864816438,-69.2816116809845,-69.2757283919491,-69.3051448371261,-69.316911415197,-69.3433862158563,-69.3345612823032,-69.3316196377855,-69.3316196377855,-69.3286779932678,-69.3404445713386,-69.3404445713386,-69.3404445713386,-69.3227947042324,-69.3257363487501,-69.3198530597147,-69.3669193719979,-69.4375188404229,-69.5316514649894,-69.6581421792507,-69.7493331592996,-69.7934578270651,-69.7375665812287,-69.6316673785914,-69.4728185746353,-69.3610360829625,-69.266903458396,-69.2316037241835,-69.216895501595,-69.2227787906304,-69.2433703022543,-69.2610201693606,-69.296319903573,-69.3345612823032,-69.4051607507281,-69.4816435081884,-69.5669511992019,-69.6346090231091,-69.6699087573215,-69.6934419134632,-69.6787336908747,-69.6757920463569,-69.6199008005206,-69.5963676443789,-69.5669511992019,-69.5993092888966,-69.655200534733,-69.7434498702642,-69.7934578270651,-69.7787496044766,-69.6905002689455,-69.5581262656488,-69.446343773976,-69.3728026610333,-69.3404445713386,-69.3316196377855,-69.3198530597147,-69.3198530597147,-69.296319903573,-69.2992615480907,-69.2757283919491,-69.2992615480907,-69.2845533255022,-69.2992615480907,-69.2816116809845,-69.2845533255022,-69.2757283919491,-69.2845533255022,-69.2904366145376,-69.296319903573,-69.2992615480907,-69.296319903573,-69.3198530597147,-69.3345612823032,-69.3669193719979,-69.3933941726573,-69.4110440397635,-69.425752262352,-69.4375188404229,-69.4404604849406,-69.4345771959051,-69.4345771959051,-69.4081023952458,-69.3786859500688,-69.346327860374,-69.3110281261615,-69.2933782590553,-69.2727867474314,-69.266903458396,-69.2404286577366,-69.2286620796658,-69.2139538570773,-69.2345453687012,-69.2492535912897,-69.2786700364668,-69.2904366145376,-69.2992615480907,-69.3080864816438,-69.316911415197,-69.3316196377855,-69.3375029268209,-69.3433862158563,-69.3375029268209,-69.3257363487501,-69.3110281261615,-69.3051448371261,-69.3051448371261,-69.3022031926084,-69.3022031926084,-69.2933782590553,-69.2786700364668,-69.2816116809845,-69.2933782590553,-69.3316196377855,-69.3639777274802,-69.3992774616927,-69.4110440397635,-69.4316355513874,-69.4110440397635,-69.3904525281396,-69.3492695048917,-69.3139697706793,-69.2816116809845,-69.2757283919491,-69.2786700364668,-69.296319903573,-69.3257363487501,-69.3433862158563,-69.3580944384448,-69.3639777274802,-69.3669193719979,-69.3757443055511,-69.3698610165156,-69.3728026610333,-69.3551527939271,-69.3492695048917,-69.3227947042324,-69.3404445713386,-69.3580944384448,-69.4286939068697,-69.5081183088478,-69.5993092888966,-69.6934419134632,-69.7963994715828,-69.9111236077733,-69.9934896542691,-70.0111395213753,-69.8993570297025,-69.6875586244278,-69.4551687075291,-69.2816116809845,-69.2051289235242,-69.1815957673825,-69.2021872790065,-69.2198371461127,-69.2580785248429,-69.2845533255022,-69.3257363487501,-69.3375029268209,-69.3492695048917,-69.3375029268209,-69.3198530597147,-69.3022031926084,-69.2757283919491
-69.2992615480907,-69.3080864816438,-69.3022031926084,-69.3227947042324,-69.3257363487501,-69.3522111494094,-69.3757443055511,-69.3845692391042,-69.396335817175,-69.3904525281396,-69.396335817175,-69.3845692391042,-69.3933941726573,-69.3669193719979,-69.3639777274802,-69.3404445713386,-69.3433862158563,-69.3492695048917,-69.3728026610333,-69.4286939068697,-69.5169432424009,-69.6228424450383,-69.7140334250871,-69.7816912489943,-69.7463915147819,-69.6375506676268,-69.4787018636707,-69.3433862158563,-69.2551368803252,-69.2080705680419,-69.1904207009356,-69.1963039899711,-69.2051289235242,-69.2257204351481,-69.2698451029137,-69.3227947042324,-69.4228106178343,-69.5404763985425,-69.6522588902153,-69.7581580928527,-69.8199326277245,-69.8493490729015,-69.8434657838661,-69.8022827606183,-69.734624936711,-69.6522588902153,-69.5875427108258,-69.5581262656488,-69.5963676443789,-69.6375506676268,-69.6816753353924,-69.6757920463569,-69.6081342224497,-69.5169432424009,-69.4286939068697,-69.3639777274802,-69.3492695048917,-69.3345612823032,-69.3286779932678,-69.3110281261615,-69.296319903573,-69.2816116809845,-69.2786700364668,-69.2639618138783,-69.2639618138783,-69.2492535912897,-69.2404286577366,-69.2227787906304,-69.2257204351481,-69.2198371461127,-69.2286620796658,-69.2286620796658,-69.2316037241835,-69.2404286577366,-69.2433703022543,-69.2698451029137,-69.296319903573,-69.3286779932678,-69.3551527939271,-69.3786859500688,-69.3816275945865,-69.396335817175,-69.3845692391042,-69.3757443055511,-69.3580944384448,-69.3227947042324,-69.2874949700199,-69.2521952358074,-69.2198371461127,-69.2139538570773,-69.2051289235242,-69.1992456344888,-69.1904207009356,-69.1992456344888,-69.2051289235242,-69.2404286577366,-69.2610201693606,-69.2933782590553,-69.3080864816438,-69.3139697706793,-69.3139697706793,-69.3110281261615,-69.3139697706793,-69.3110281261615,-69.3139697706793,-69.2992615480907,-69.2992615480907,-69.2816116809845,-69.2904366145376,-69.296319903573,-69.3022031926084,-69.3022031926084,-69.2992615480907,-69.2904366145376,-69.3022031926084,-69.3316196377855,-69.3728026610333,-69.4316355513874,-69.4904684417415,-69.5198848869186,-69.5169432424009,-69.4728185746353,-69.4081023952458,-69.3375029268209,-69.2933782590553,-69.266903458396,-69.2757283919491,-69.2874949700199,-69.316911415197,-69.346327860374,-69.3698610165156,-69.3816275945865,-69.3875108836219,-69.3757443055511,-69.3669193719979,-69.3492695048917,-69.3345612823032,-69.3227947042324,-69.3227947042324,-69.3375029268209,-69.3875108836219,-69.4522270630114,-69.5522429766133,-69.6669671128038,-69.7787496044766,-69.8787655180786,-69.9670148536097,-70.0170228104107,-70.0081978768576,-69.8964153851848,-69.7022668470163,-69.4816435081884,-69.3198530597147,-69.2316037241835,-69.216895501595,-69.2316037241835,-69.2727867474314,-69.3198530597147,-69.3757443055511,-69.4169273287989,-69.4316355513874,-69.4139856842812,-69.3757443055511,-69.3345612823032,-69.296319903573,-69.2698451029137
